ply
format ascii 1.0
comment this is my Proccessing file
element vertex 1662
property float x
property float y
property float z
end_header
-2776.5393 2015.5732 -5580.0 
-2807.9717 2015.5732 -5580.0 
-2886.2185 2048.805 -5672.0 
-2918.17 2048.805 -5672.0 
-2950.1206 2048.805 -5672.0 
-2933.702 2015.5732 -5580.0 
-3064.5034 2083.1204 -5767.0 
-3045.9724 2048.805 -5672.0 
-3027.9998 2015.5732 -5580.0 
-3059.432 2015.5732 -5580.0 
-3090.8645 2015.5732 -5580.0 
-3122.2969 2015.5732 -5580.0 
-3153.7292 2015.5732 -5580.0 
-3185.1624 2015.5732 -5580.0 
-3116.2922 1952.7222 -5406.0 
-3196.2217 1983.4254 -5491.0 
-3177.1968 1952.7222 -5406.0 
-3258.0837 1983.4254 -5491.0 
-3238.1018 1952.7222 -5406.0 
3014.9927 1835.8074 -5163.0 
2899.1597 1782.4718 -5013.0 
2913.3008 1808.784 -5087.0 
2927.7422 1835.8074 -5163.0 
2898.6587 1835.8074 -5163.0 
2869.575 1835.8074 -5163.0 
2840.4912 1835.8074 -5163.0 
2854.4258 1863.8975 -5242.0 
2824.8975 1863.8975 -5242.0 
2753.241 1835.8074 -5163.0 
2684.0574 1808.784 -5087.0 
2655.4019 1808.784 -5087.0 
2626.7466 1808.784 -5087.0 
2636.907 1835.8074 -5163.0 
2607.8232 1835.8074 -5163.0 
2540.7805 1808.784 -5087.0 
2549.656 1835.8074 -5163.0 
2520.5728 1835.8074 -5163.0 
2529.612 1863.8975 -5242.0 
2500.0833 1863.8975 -5242.0 
2433.322 1835.8074 -5163.0 
2441.0261 1863.8975 -5242.0 
2411.4976 1863.8975 -5242.0 
2418.3213 1892.343 -5322.0 
2352.4404 1863.8975 -5242.0 
2322.912 1863.8975 -5242.0 
2328.3835 1892.343 -5322.0 
2263.855 1863.8975 -5242.0 
2268.4253 1892.343 -5322.0 
2204.7979 1863.8975 -5242.0 
2208.467 1892.343 -5322.0 
2145.7407 1863.8975 -5242.0 
2148.5085 1892.343 -5322.0 
2118.5295 1892.343 -5322.0 
2121.515 1922.2108 -5406.0 
2058.571 1892.343 -5322.0 
2028.5917 1892.343 -5322.0 
1998.6125 1892.343 -5322.0 
1968.6335 1892.343 -5322.0 
1938.6542 1892.343 -5322.0 
1908.675 1892.343 -5322.0 
1878.6957 1892.343 -5322.0 
1848.7167 1892.343 -5322.0 
1791.3984 1863.8975 -5242.0 
617.76355 653.5375 -1838.0 
601.131 646.7816 -1819.0 
584.7124 640.0258 -1800.0 
568.508 633.27 -1781.0 
555.6534 630.0699 -1772.0 
545.6715 630.0699 -1772.0 
535.68976 630.0699 -1772.0 
525.70795 630.0699 -1772.0 
515.72614 630.0699 -1772.0 
508.31305 633.27 -1781.0 
498.28052 633.27 -1781.0 
485.7808 630.0699 -1772.0 
478.21555 633.27 -1781.0 
473.17773 640.0258 -1800.0 
463.03824 640.0258 -1800.0 
450.38257 636.4701 -1790.0 
433.65802 626.86975 -1763.0 
428.05307 633.27 -1781.0 
420.133 636.4701 -1790.0 
407.98813 633.27 -1781.0 
395.94458 630.0699 -1772.0 
382.0422 623.6696 -1754.0 
368.34256 617.26935 -1736.0 
358.56357 617.26935 -1736.0 
348.78458 617.26935 -1736.0 
342.52057 623.6696 -1754.0 
334.34702 626.86975 -1763.0 
324.41586 626.86975 -1763.0 
311.27396 620.4694 -1745.0 
299.88956 617.26935 -1736.0 
288.7736 614.4248 -1728.0 
280.3315 617.26935 -1736.0 
271.9551 620.4694 -1745.0 
263.47736 623.6696 -1754.0 
250.9945 617.26935 -1736.0 
240.10388 614.4248 -1728.0 
229.17012 611.2247 -1719.0 
219.48683 611.2247 -1719.0 
209.80362 611.2247 -1719.0 
201.16815 614.4248 -1728.0 
191.43417 614.4248 -1728.0 
182.54146 617.26935 -1736.0 
171.96628 614.4248 -1728.0 
162.98343 617.26935 -1736.0 
153.99872 620.4694 -1745.0 
144.91254 623.6696 -1754.0 
135.72504 626.86975 -1763.0 
125.151726 623.6696 -1754.0 
115.86282 626.86975 -1763.0 
105.390976 623.6696 -1754.0 
96.00061 626.86975 -1763.0 
86.06954 626.86975 -1763.0 
76.138405 626.86975 -1763.0 
66.20733 626.86975 -1763.0 
56.276253 626.86975 -1763.0 
46.345116 626.86975 -1763.0 
36.22815 623.6696 -1754.0 
26.347712 623.6696 -1754.0 
16.467335 623.6696 -1754.0 
6.620758 626.86975 -1763.0 
-3.293417 623.6696 -1754.0 
-13.106322 620.4694 -1745.0 
-22.817705 617.26935 -1736.0 
-32.596687 617.26935 -1736.0 
-42.375668 617.26935 -1736.0 
-52.15465 617.26935 -1736.0 
-62.25484 620.4694 -1745.0 
-72.08452 620.4694 -1745.0 
-81.491714 617.26935 -1736.0 
-91.270706 617.26935 -1736.0 
-101.57356 620.4694 -1745.0 
-111.40336 620.4694 -1745.0 
-121.85831 623.6696 -1754.0 
-132.41466 626.86975 -1763.0 
-143.07239 630.0699 -1772.0 
-153.05417 630.0699 -1772.0 
-161.37994 623.6696 -1754.0 
-171.26033 623.6696 -1754.0 
-181.14069 623.6696 -1754.0 
-192.98137 630.0699 -1772.0 
-202.96315 630.0699 -1772.0 
-395.7269 1170.8916 -3293.0 
-410.37656 1159.869 -3262.0 
-432.82617 1170.8916 -3293.0 
-447.12662 1159.869 -3262.0 
-465.50165 1159.869 -3262.0 
-493.07382 1181.9143 -3324.0 
-507.02496 1170.8916 -3293.0 
-525.57465 1170.8916 -3293.0 
-539.00195 1159.869 -3262.0 
-562.67395 1170.8916 -3293.0 
-575.7522 1159.869 -3262.0 
-599.77344 1170.8916 -3293.0 
-618.3231 1170.8916 -3293.0 
-636.87274 1170.8916 -3293.0 
-649.2523 1159.869 -3262.0 
-667.62756 1159.869 -3262.0 
-686.00256 1159.869 -3262.0 
-704.3776 1159.869 -3262.0 
-722.7526 1159.869 -3262.0 
-741.1277 1159.869 -3262.0 
-759.5029 1159.869 -3262.0 
-777.8779 1159.869 -3262.0 
-796.2529 1159.869 -3262.0 
-814.628 1159.869 -3262.0 
-833.003 1159.869 -3262.0 
-843.2873 1148.8463 -3231.0 
-861.4877 1148.8463 -3231.0 
-879.68805 1148.8463 -3231.0 
-906.5033 1159.869 -3262.0 
-924.87836 1159.869 -3262.0 
-934.28955 1148.8463 -3231.0 
-952.4899 1148.8463 -3231.0 
-970.6903 1148.8463 -3231.0 
-979.7088 1138.1792 -3201.0 
-1007.09106 1148.8463 -3231.0 
-1025.2917 1148.8463 -3231.0 
-1043.4921 1148.8463 -3231.0 
-1061.6925 1148.8463 -3231.0 
-1079.893 1148.8463 -3231.0 
-1098.0933 1148.8463 -3231.0 
-1105.9291 1138.1792 -3201.0 
-1123.9604 1138.1792 -3201.0 
-1141.992 1138.1792 -3201.0 
-1160.0233 1138.1792 -3201.0 
-1178.0547 1138.1792 -3201.0 
-1196.0863 1138.1792 -3201.0 
-1214.1178 1138.1792 -3201.0 
-1232.1492 1138.1792 -3201.0 
-1250.1805 1138.1792 -3201.0 
-1280.0977 1148.8463 -3231.0 
-1298.2983 1148.8463 -3231.0 
-1316.4988 1148.8463 -3231.0 
-1322.3064 1138.1792 -3201.0 
-1328.1947 1127.8678 -3172.0 
-1346.0629 1127.8678 -3172.0 
-1363.9312 1127.8678 -3172.0 
-1381.7992 1127.8678 -3172.0 
-1386.8707 1117.5562 -3143.0 
-1404.5754 1117.5562 -3143.0 
-1422.2802 1117.5562 -3143.0 
-1453.2716 1127.8678 -3172.0 
-1471.1396 1127.8678 -3172.0 
-1489.0077 1127.8678 -3172.0 
-1506.8756 1127.8678 -3172.0 
-2837.1023 2050.5715 -5767.0 
-2869.5881 2050.5715 -5767.0 
-2902.074 2050.5715 -5767.0 
-2886.2185 2016.7925 -5672.0 
-2967.0461 2050.5715 -5767.0 
-2999.532 2050.5715 -5767.0 
-3083.0156 2085.0618 -5864.0 
-3064.5034 2050.5715 -5767.0 
-3096.9893 2050.5715 -5767.0 
-3027.9998 1984.08 -5580.0 
-3109.8743 2016.7925 -5672.0 
-3141.825 2016.7925 -5672.0 
-3173.7756 2016.7925 -5672.0 
-3205.7263 2016.7925 -5672.0 
-3237.6775 2016.7925 -5672.0 
-3216.5945 1984.08 -5580.0 
-3248.027 1984.08 -5580.0 
-3279.4595 1984.08 -5580.0 
-3310.8918 1984.08 -5580.0 
-3289.0151 1952.4343 -5491.0 
3014.9927 1806.6675 -5163.0 
2941.956 1780.073 -5087.0 
2956.8257 1806.6675 -5163.0 
2927.7422 1806.6675 -5163.0 
2898.6587 1806.6675 -5163.0 
2913.483 1834.3115 -5242.0 
2883.9543 1834.3115 -5242.0 
2943.7288 1891.6995 -5406.0 
2824.8975 1834.3115 -5242.0 
2753.241 1806.6675 -5163.0 
2684.0574 1780.073 -5087.0 
2695.0737 1806.6675 -5163.0 
2665.9902 1806.6675 -5163.0 
2677.2546 1834.3115 -5242.0 
2647.726 1834.3115 -5242.0 
2618.1975 1834.3115 -5242.0 
2588.6687 1834.3115 -5242.0 
2559.1404 1834.3115 -5242.0 
2568.2173 1862.3057 -5322.0 
2538.2378 1862.3057 -5322.0 
2508.2588 1862.3057 -5322.0 
2478.2795 1862.3057 -5322.0 
2411.4976 1834.3115 -5242.0 
2418.3213 1862.3057 -5322.0 
2388.342 1862.3057 -5322.0 
2358.3628 1862.3057 -5322.0 
2365.1338 1891.6995 -5406.0 
2298.4045 1862.3057 -5322.0 
2304.229 1891.6995 -5406.0 
2204.7979 1834.3115 -5242.0 
2243.3242 1891.6995 -5406.0 
2212.8718 1891.6995 -5406.0 
2216.7344 1921.4431 -5491.0 
2151.9673 1891.6995 -5406.0 
2154.872 1921.4431 -5491.0 
2091.0625 1891.6995 -5406.0 
2093.0095 1921.4431 -5491.0 
2062.0784 1921.4431 -5491.0 
2031.1473 1921.4431 -5491.0 
2000.2161 1921.4431 -5491.0 
1969.2849 1921.4431 -5491.0 
1938.3536 1921.4431 -5491.0 
1938.3387 1952.5867 -5580.0 
1906.9064 1952.5867 -5580.0 
608.0165 633.016 -1809.0 
597.82623 633.016 -1809.0 
581.46405 626.3674 -1790.0 
565.63513 620.06866 -1772.0 
555.6534 620.06866 -1772.0 
542.9001 616.9194 -1763.0 
532.969 616.9194 -1763.0 
523.03784 616.9194 -1763.0 
515.72614 620.06866 -1772.0 
505.7444 620.06866 -1772.0 
495.76254 620.06866 -1772.0 
485.7808 620.06866 -1772.0 
478.21555 623.218 -1781.0 
473.17773 629.86664 -1800.0 
460.4658 626.3674 -1790.0 
445.85358 620.06866 -1772.0 
433.65802 616.9194 -1763.0 
425.88998 620.06866 -1772.0 
415.9082 620.06866 -1772.0 
405.9264 620.06866 -1772.0 
393.9336 616.9194 -1763.0 
382.0422 613.77 -1754.0 
370.25214 610.6207 -1745.0 
360.4225 610.6207 -1745.0 
350.5928 610.6207 -1745.0 
342.52057 613.77 -1754.0 
334.34702 616.9194 -1763.0 
322.75977 613.77 -1754.0 
311.27396 610.6207 -1745.0 
299.88956 607.4714 -1736.0 
288.7736 604.67194 -1728.0 
279.03967 604.67194 -1728.0 
270.5525 607.4714 -1736.0 
262.12543 610.6207 -1745.0 
250.9945 607.4714 -1736.0 
240.10388 604.67194 -1728.0 
229.17012 601.52264 -1719.0 
219.48683 601.52264 -1719.0 
209.80362 601.52264 -1719.0 
200.1204 601.52264 -1719.0 
191.43417 604.67194 -1728.0 
181.70026 604.67194 -1728.0 
171.96628 604.67194 -1728.0 
162.98343 607.4714 -1736.0 
153.99872 610.6207 -1745.0 
144.91254 613.77 -1754.0 
135.72504 616.9194 -1763.0 
125.79389 616.9194 -1763.0 
115.86282 616.9194 -1763.0 
104.850204 610.6207 -1745.0 
96.00061 616.9194 -1763.0 
86.06954 616.9194 -1763.0 
76.138405 616.9194 -1763.0 
66.20733 616.9194 -1763.0 
56.276253 616.9194 -1763.0 
46.10853 613.77 -1754.0 
36.22815 613.77 -1754.0 
26.347712 613.77 -1754.0 
16.467335 613.77 -1754.0 
6.5869594 613.77 -1754.0 
-3.293417 613.77 -1754.0 
-13.038725 607.4714 -1736.0 
-22.817705 607.4714 -1736.0 
-32.596687 607.4714 -1736.0 
-42.375668 607.4714 -1736.0 
-52.15465 607.4714 -1736.0 
-61.933754 607.4714 -1736.0 
-71.71274 607.4714 -1736.0 
-81.491714 607.4714 -1736.0 
-91.270706 607.4714 -1736.0 
-101.049675 607.4714 -1736.0 
-111.40336 610.6207 -1745.0 
-121.23304 610.6207 -1745.0 
-131.73868 613.77 -1754.0 
-141.61906 613.77 -1754.0 
-151.49944 613.77 -1754.0 
-160.55188 610.6207 -1745.0 
-170.38155 610.6207 -1745.0 
-180.21124 610.6207 -1745.0 
-191.02106 613.77 -1754.0 
-200.90144 613.77 -1754.0 
-212.94505 620.06866 -1772.0 
-222.92682 620.06866 -1772.0 
-436.90076 1163.1537 -3324.0 
-460.14838 1174.7012 -3357.0 
-479.05856 1174.7012 -3357.0 
-493.07382 1163.1537 -3324.0 
-511.7981 1163.1537 -3324.0 
-525.57465 1152.306 -3293.0 
-544.1243 1152.306 -3293.0 
-557.37695 1141.4583 -3262.0 
-575.7522 1141.4583 -3262.0 
-594.12726 1141.4583 -3262.0 
-612.50226 1141.4583 -3262.0 
-636.87274 1152.306 -3293.0 
-649.2523 1141.4583 -3262.0 
-667.62756 1141.4583 -3262.0 
-686.00256 1141.4583 -3262.0 
-704.3776 1141.4583 -3262.0 
-722.7526 1141.4583 -3262.0 
-741.1277 1141.4583 -3262.0 
-759.5029 1141.4583 -3262.0 
-777.8779 1141.4583 -3262.0 
-796.2529 1141.4583 -3262.0 
-814.628 1141.4583 -3262.0 
-833.003 1141.4583 -3262.0 
-851.37823 1141.4583 -3262.0 
-869.7533 1141.4583 -3262.0 
-879.68805 1130.6106 -3231.0 
-450.75058 567.57983 -1622.0 
-462.15564 570.3793 -1630.0 
-471.33762 570.3793 -1630.0 
-480.51953 570.3793 -1630.0 
-970.6903 1130.6106 -3231.0 
-979.7088 1120.1128 -3201.0 
-997.7402 1120.1128 -3201.0 
-1025.2917 1130.6106 -3231.0 
-1043.4921 1130.6106 -3231.0 
-1061.6925 1130.6106 -3231.0 
-1079.893 1130.6106 -3231.0 
-1098.0933 1130.6106 -3231.0 
-1105.9291 1120.1128 -3201.0 
-1113.7778 1109.965 -3172.0 
-1141.992 1120.1128 -3201.0 
-1160.0233 1120.1128 -3201.0 
-1178.0547 1120.1128 -3201.0 
-1196.0863 1120.1128 -3201.0 
-1214.1178 1120.1128 -3201.0 
-1232.1492 1120.1128 -3201.0 
-1250.1805 1120.1128 -3201.0 
-1280.0977 1130.6106 -3231.0 
-1286.2437 1120.1128 -3201.0 
-1304.275 1120.1128 -3201.0 
-1322.3064 1120.1128 -3201.0 
-1340.3378 1120.1128 -3201.0 
-1346.0629 1109.965 -3172.0 
-1363.9312 1109.965 -3172.0 
-1369.166 1099.8171 -3143.0 
-1386.8707 1099.8171 -3143.0 
-1404.5754 1099.8171 -3143.0 
-1422.2802 1099.8171 -3143.0 
-1453.2716 1109.965 -3172.0 
-1471.1396 1109.965 -3172.0 
-1489.0077 1109.965 -3172.0 
-1506.8756 1109.965 -3172.0 
-2884.8218 2051.9656 -5864.0 
-2917.8542 2051.9656 -5864.0 
-2950.8865 2051.9656 -5864.0 
-2983.9187 2051.9656 -5864.0 
-3016.9512 2051.9656 -5864.0 
-3049.9834 2051.9656 -5864.0 
-3083.0156 2051.9656 -5864.0 
-3170.2493 2087.658 -5966.0 
-3149.08 2051.9656 -5864.0 
-3129.4756 2018.0227 -5767.0 
-3109.8743 1984.7797 -5672.0 
-3141.825 1984.7797 -5672.0 
-3226.9329 2018.0227 -5767.0 
-3314.2417 2051.9656 -5864.0 
-3347.2744 2051.9656 -5864.0 
-3380.3064 2051.9656 -5864.0 
-3301.5789 1984.7797 -5672.0 
-3279.4595 1952.5867 -5580.0 
-3365.48 1984.7797 -5672.0 
-3342.325 1952.5867 -5580.0 
3014.9927 1777.5277 -5163.0 
3077.8633 1832.2686 -5322.0 
3047.884 1832.2686 -5322.0 
3017.905 1832.2686 -5322.0 
2898.6587 1777.5277 -5163.0 
2957.9465 1832.2686 -5322.0 
2974.181 1861.1881 -5406.0 
2990.0137 1890.452 -5491.0 
2868.009 1832.2686 -5322.0 
2838.0298 1832.2686 -5322.0 
2724.1572 1777.5277 -5163.0 
2736.3115 1804.726 -5242.0 
2748.0923 1832.2686 -5322.0 
2718.1133 1832.2686 -5322.0 
2688.1338 1832.2686 -5322.0 
2658.1548 1832.2686 -5322.0 
2669.6575 1861.1881 -5406.0 
2639.205 1861.1881 -5406.0 
2568.2173 1832.2686 -5322.0 
2538.2378 1832.2686 -5322.0 
2547.8481 1861.1881 -5406.0 
2517.3955 1861.1881 -5406.0 
2486.943 1861.1881 -5406.0 
2456.491 1861.1881 -5406.0 
2464.1836 1890.452 -5491.0 
2433.2527 1890.452 -5491.0 
2402.3213 1890.452 -5491.0 
2371.3901 1890.452 -5491.0 
2340.4592 1890.452 -5491.0 
2346.9614 1921.0933 -5580.0 
2353.7063 1952.7672 -5672.0 
2321.7554 1952.7672 -5672.0 
2289.8047 1952.7672 -5672.0 
2257.854 1952.7672 -5672.0 
2225.903 1952.7672 -5672.0 
2158.3665 1921.0933 -5580.0 
2162.0015 1952.7672 -5672.0 
2165.7268 1985.474 -5767.0 
2098.1 1952.7672 -5672.0 
2066.1492 1952.7672 -5672.0 
2034.1986 1952.7672 -5672.0 
2035.7832 1985.474 -5767.0 
2003.2974 1985.474 -5767.0 
1970.8116 1985.474 -5767.0 
601.63043 616.2647 -1790.0 
594.852 619.7075 -1800.0 
581.46405 616.2647 -1790.0 
565.63513 610.0676 -1772.0 
552.83124 606.96906 -1763.0 
542.9001 606.96906 -1763.0 
530.2482 603.8705 -1754.0 
523.03784 606.96906 -1763.0 
513.1068 606.96906 -1763.0 
503.17572 606.96906 -1763.0 
493.24457 606.96906 -1763.0 
483.3135 606.96906 -1763.0 
475.79898 610.0676 -1772.0 
468.18307 613.16614 -1781.0 
458.1506 613.16614 -1781.0 
445.85358 610.0676 -1772.0 
433.65802 606.96906 -1763.0 
423.72687 606.96906 -1763.0 
413.7958 606.96906 -1763.0 
403.86472 606.96906 -1763.0 
393.9336 606.96906 -1763.0 
380.08188 600.77203 -1745.0 
368.34256 597.67346 -1736.0 
358.56357 597.67346 -1736.0 
352.401 603.8705 -1754.0 
342.52057 603.8705 -1754.0 
332.6402 603.8705 -1754.0 
321.1036 600.77203 -1745.0 
309.66852 597.67346 -1736.0 
299.88956 597.67346 -1736.0 
288.7736 594.9192 -1728.0 
279.03967 594.9192 -1728.0 
269.3057 594.9192 -1728.0 
260.7735 597.67346 -1736.0 
249.83786 594.9192 -1728.0 
238.85335 591.8206 -1719.0 
229.17012 591.8206 -1719.0 
219.48683 591.8206 -1719.0 
209.80362 591.8206 -1719.0 
200.1204 591.8206 -1719.0 
191.43417 594.9192 -1728.0 
181.70026 594.9192 -1728.0 
171.96628 594.9192 -1728.0 
162.23236 594.9192 -1728.0 
153.20445 597.67346 -1736.0 
144.16898 600.77203 -1745.0 
134.3393 600.77203 -1745.0 
124.50955 600.77203 -1745.0 
114.67988 600.77203 -1745.0 
104.850204 600.77203 -1745.0 
95.51053 603.8705 -1754.0 
86.06954 606.96906 -1763.0 
76.527084 610.0676 -1772.0 
66.54531 610.0676 -1772.0 
56.276253 606.96906 -1763.0 
46.10853 603.8705 -1754.0 
36.22815 603.8705 -1754.0 
26.347712 603.8705 -1754.0 
16.467335 603.8705 -1754.0 
6.553161 600.77203 -1745.0 
-3.276518 600.77203 -1745.0 
-13.038725 597.67346 -1736.0 
-22.817705 597.67346 -1736.0 
-32.596687 597.67346 -1736.0 
-42.375668 597.67346 -1736.0 
-52.15465 597.67346 -1736.0 
-61.933754 597.67346 -1736.0 
-71.71274 597.67346 -1736.0 
-81.491714 597.67346 -1736.0 
-91.270706 597.67346 -1736.0 
-101.049675 597.67346 -1736.0 
-110.82879 597.67346 -1736.0 
-121.23304 600.77203 -1745.0 
-131.06271 600.77203 -1745.0 
-140.8924 600.77203 -1745.0 
-150.72208 600.77203 -1745.0 
-160.55188 600.77203 -1745.0 
-170.38155 600.77203 -1745.0 
-180.21124 600.77203 -1745.0 
-190.04092 600.77203 -1745.0 
-199.87059 600.77203 -1745.0 
-209.70041 600.77203 -1745.0 
-220.66234 603.8705 -1754.0 
-232.90858 610.0676 -1772.0 
-455.62503 1144.3932 -3324.0 
-474.3493 1144.3932 -3324.0 
-483.8769 1123.0477 -3262.0 
-502.2519 1123.0477 -3262.0 
-520.62695 1123.0477 -3262.0 
-539.00195 1123.0477 -3262.0 
-557.37695 1123.0477 -3262.0 
-575.7522 1123.0477 -3262.0 
-594.12726 1123.0477 -3262.0 
-612.50226 1123.0477 -3262.0 
-630.8773 1123.0477 -3262.0 
-649.2523 1123.0477 -3262.0 
-673.9722 1133.7205 -3293.0 
-692.5219 1133.7205 -3293.0 
-704.3776 1123.0477 -3262.0 
-722.7526 1123.0477 -3262.0 
-741.1277 1123.0477 -3262.0 
-759.5029 1123.0477 -3262.0 
-777.8779 1123.0477 -3262.0 
-796.2529 1123.0477 -3262.0 
-822.3697 1133.7205 -3293.0 
-840.9194 1133.7205 -3293.0 
-851.37823 1123.0477 -3262.0 
-861.4877 1112.375 -3231.0 
-447.87585 566.3438 -1645.0 
-455.19693 563.93384 -1638.0 
-464.42386 563.93384 -1638.0 
-473.65097 563.93384 -1638.0 
-1025.2917 1112.375 -3231.0 
-1043.4921 1112.375 -3231.0 
-1061.6925 1112.375 -3231.0 
-1079.893 1112.375 -3231.0 
-1098.0933 1112.375 -3231.0 
-1116.294 1112.375 -3231.0 
-1134.4944 1112.375 -3231.0 
-1141.992 1102.0465 -3201.0 
-1170.8951 1112.375 -3231.0 
-1189.0955 1112.375 -3231.0 
-1196.0863 1102.0465 -3201.0 
-1214.1178 1102.0465 -3201.0 
-1220.9863 1092.0623 -3172.0 
-1250.1805 1102.0465 -3201.0 
-1268.2119 1102.0465 -3201.0 
-1286.2437 1102.0465 -3201.0 
-1304.275 1102.0465 -3201.0 
-1322.3064 1102.0465 -3201.0 
-1328.1947 1092.0623 -3172.0 
-1358.3691 1102.0465 -3201.0 
-1363.9312 1092.0623 -3172.0 
-1381.7992 1092.0623 -3172.0 
-1386.8707 1082.0781 -3143.0 
-1404.5754 1082.0781 -3143.0 
-1422.2802 1082.0781 -3143.0 
-1453.2716 1092.0623 -3172.0 
-1471.1396 1092.0623 -3172.0 
-1475.3944 1082.0781 -3143.0 
-1493.0991 1082.0781 -3143.0 
-2935.0012 2053.986 -5966.0 
-2968.6082 2053.986 -5966.0 
-3055.0532 2090.1355 -6071.0 
-3035.8218 2053.986 -5966.0 
-3069.429 2053.986 -5966.0 
-3103.0356 2053.986 -5966.0 
-3136.6426 2053.986 -5966.0 
-3170.2493 2053.986 -5966.0 
-3203.8562 2053.986 -5966.0 
-3353.0483 2127.318 -6179.0 
-3271.07 2053.986 -5966.0 
-3141.825 1952.7672 -5672.0 
-3226.9329 1985.474 -5767.0 
-3314.2417 2018.8693 -5864.0 
-3347.2744 2018.8693 -5864.0 
-3380.3064 2018.8693 -5864.0 
-3356.8767 1985.474 -5767.0 
-3333.5293 1952.7672 -5672.0 
-3421.8484 1985.474 -5767.0 
-3512.436 2018.8693 -5864.0 
3107.8425 1802.2313 -5322.0 
3126.4429 1830.677 -5406.0 
3095.9905 1830.677 -5406.0 
3065.5383 1830.677 -5406.0 
2987.9258 1802.2313 -5322.0 
2957.9465 1802.2313 -5322.0 
2974.181 1830.677 -5406.0 
2943.7288 1830.677 -5406.0 
2913.2764 1830.677 -5406.0 
2882.8237 1830.677 -5406.0 
2852.3718 1830.677 -5406.0 
2821.9192 1830.677 -5406.0 
2791.4668 1830.677 -5406.0 
2804.4268 1859.4612 -5491.0 
2730.562 1830.677 -5406.0 
2700.1099 1830.677 -5406.0 
2669.6575 1830.677 -5406.0 
2639.205 1830.677 -5406.0 
2608.7527 1830.677 -5406.0 
2618.8394 1859.4612 -5491.0 
2587.9087 1859.4612 -5491.0 
2556.9773 1859.4612 -5491.0 
2526.0461 1859.4612 -5491.0 
2535.5566 1889.6 -5580.0 
2504.124 1889.6 -5580.0 
2472.6917 1889.6 -5580.0 
2441.2588 1889.6 -5580.0 
2409.8264 1889.6 -5580.0 
2417.608 1920.7546 -5672.0 
2425.614 1952.9253 -5767.0 
2393.1282 1952.9253 -5767.0 
2360.6423 1952.9253 -5767.0 
2328.1565 1952.9253 -5767.0 
2334.2834 1985.7732 -5864.0 
2341.2795 2020.3142 -5966.0 
2268.2188 1985.7732 -5864.0 
2198.2126 1952.9253 -5767.0 
2165.7268 1952.9253 -5767.0 
2133.2412 1952.9253 -5767.0 
2100.7551 1952.9253 -5767.0 
2068.2693 1952.9253 -5767.0 
2035.7832 1952.9253 -5767.0 
2036.9926 1985.7732 -5864.0 
1970.8116 1952.9253 -5767.0 
598.60547 603.11426 -1781.0 
588.573 603.11426 -1781.0 
575.61694 600.0665 -1772.0 
565.63513 600.0665 -1772.0 
552.83124 597.01874 -1763.0 
540.1286 593.971 -1754.0 
530.2482 593.971 -1754.0 
520.3678 593.971 -1754.0 
510.4874 593.971 -1754.0 
503.17572 597.01874 -1763.0 
490.7266 593.971 -1754.0 
480.84622 593.971 -1754.0 
473.38235 597.01874 -1763.0 
465.81717 600.0665 -1772.0 
455.8354 600.0665 -1772.0 
445.85358 600.0665 -1772.0 
435.8718 600.0665 -1772.0 
423.72687 597.01874 -1763.0 
413.7958 597.01874 -1763.0 
403.86472 597.01874 -1763.0 
391.92258 593.971 -1754.0 
378.1216 587.87555 -1736.0 
368.34256 587.87555 -1736.0 
360.4225 590.9233 -1745.0 
352.401 593.971 -1754.0 
342.52057 593.971 -1754.0 
330.93335 590.9233 -1745.0 
319.4475 587.87555 -1736.0 
309.66852 587.87555 -1736.0 
299.88956 587.87555 -1736.0 
287.26956 582.1187 -1719.0 
279.03967 585.16644 -1728.0 
267.90305 582.1187 -1719.0 
260.7735 587.87555 -1736.0 
249.83786 585.16644 -1728.0 
238.85335 582.1187 -1719.0 
228.10359 579.4096 -1711.0 
218.46538 579.4096 -1711.0 
208.82722 579.4096 -1711.0 
199.18907 579.4096 -1711.0 
188.5538 576.3619 -1702.0 
179.91269 579.4096 -1711.0 
171.07062 582.1187 -1719.0 
162.98343 587.87555 -1736.0 
153.20445 587.87555 -1736.0 
143.42542 587.87555 -1736.0 
134.3393 590.9233 -1745.0 
125.151726 593.971 -1754.0 
115.27135 593.971 -1754.0 
104.30942 587.87555 -1736.0 
95.02046 590.9233 -1745.0 
86.06954 597.01874 -1763.0 
76.527084 600.0665 -1772.0 
66.54531 600.0665 -1772.0 
56.56354 600.0665 -1772.0 
46.345116 597.01874 -1763.0 
36.22815 593.971 -1754.0 
26.212519 590.9233 -1745.0 
16.467335 593.971 -1754.0 
6.5193624 587.87555 -1736.0 
-3.276518 590.9233 -1745.0 
-13.106322 590.9233 -1745.0 
-22.817705 587.87555 -1736.0 
-32.596687 587.87555 -1736.0 
-42.375668 587.87555 -1736.0 
-52.15465 587.87555 -1736.0 
-61.933754 587.87555 -1736.0 
-71.71274 587.87555 -1736.0 
-81.491714 587.87555 -1736.0 
-91.270706 587.87555 -1736.0 
-101.049675 587.87555 -1736.0 
-110.82879 587.87555 -1736.0 
-120.607765 587.87555 -1736.0 
-131.06271 590.9233 -1745.0 
-140.8924 590.9233 -1745.0 
-150.72208 590.9233 -1745.0 
-159.72382 587.87555 -1736.0 
-170.38155 590.9233 -1745.0 
-180.21124 590.9233 -1745.0 
-190.04092 590.9233 -1745.0 
-198.83975 587.87555 -1736.0 
-207.65749 585.16644 -1728.0 
-218.39783 587.87555 -1736.0 
-228.17682 587.87555 -1736.0 
-239.18944 590.9233 -1745.0 
-247.73479 587.87555 -1736.0 
-257.5139 587.87555 -1736.0 
-267.29285 587.87555 -1736.0 
-515.6792 1094.1393 -3231.0 
-539.00195 1104.6371 -3262.0 
-557.37695 1104.6371 -3262.0 
-575.7522 1104.6371 -3262.0 
-599.77344 1115.1349 -3293.0 
-612.50226 1104.6371 -3262.0 
-636.87274 1115.1349 -3293.0 
-649.2523 1104.6371 -3262.0 
-673.9722 1115.1349 -3293.0 
-686.00256 1104.6371 -3262.0 
-704.3776 1104.6371 -3262.0 
-722.7526 1104.6371 -3262.0 
-741.1277 1104.6371 -3262.0 
-759.5029 1104.6371 -3262.0 
-777.8779 1104.6371 -3262.0 
-796.2529 1104.6371 -3262.0 
-403.31824 546.9003 -1615.0 
-420.07663 557.0595 -1645.0 
-427.5161 554.689 -1638.0 
-438.6095 557.0595 -1645.0 
-447.87585 557.0595 -1645.0 
-455.19693 554.689 -1638.0 
-464.42386 554.689 -1638.0 
-997.7402 1083.9802 -3201.0 
-1025.2917 1094.1393 -3231.0 
-1043.4921 1094.1393 -3231.0 
-1061.6925 1094.1393 -3231.0 
-1079.893 1094.1393 -3231.0 
-1098.0933 1094.1393 -3231.0 
-1116.294 1094.1393 -3231.0 
-1134.4944 1094.1393 -3231.0 
-1141.992 1083.9802 -3201.0 
-1160.0233 1083.9802 -3201.0 
-1178.0547 1083.9802 -3201.0 
-1185.2502 1074.1597 -3172.0 
-1203.1183 1074.1597 -3172.0 
-1220.9863 1074.1597 -3172.0 
-1238.8542 1074.1597 -3172.0 
-1256.7224 1074.1597 -3172.0 
-1274.5907 1074.1597 -3172.0 
-1304.275 1083.9802 -3201.0 
-1310.3268 1074.1597 -3172.0 
-1316.0518 1064.3392 -3143.0 
-1346.0629 1074.1597 -3172.0 
-1363.9312 1074.1597 -3172.0 
-1369.166 1064.3392 -3143.0 
-1386.8707 1064.3392 -3143.0 
-1404.5754 1064.3392 -3143.0 
-1422.2802 1064.3392 -3143.0 
-1439.985 1064.3392 -3143.0 
-1457.6897 1064.3392 -3143.0 
-1475.3944 1064.3392 -3143.0 
-1493.0991 1064.3392 -3143.0 
-2986.6565 2055.871 -6071.0 
-3020.8547 2055.871 -6071.0 
-3055.0532 2055.871 -6071.0 
-3035.8218 2020.3142 -5966.0 
-3069.429 2020.3142 -5966.0 
-3103.0356 2020.3142 -5966.0 
-3191.8467 2055.871 -6071.0 
-3226.045 2055.871 -6071.0 
-3318.2412 2092.444 -6179.0 
-3353.0483 2092.444 -6179.0 
-3328.6401 2055.871 -6071.0 
-3304.677 2020.3142 -5966.0 
-3281.2097 1985.7732 -5864.0 
-3314.2417 1985.7732 -5864.0 
-3405.4978 2020.3142 -5966.0 
-3380.3064 1985.7732 -5864.0 
-3413.3389 1985.7732 -5864.0 
-3389.3625 1952.9253 -5767.0 
-3479.4033 1985.7732 -5864.0 
-3512.436 1985.7732 -5864.0 
3156.8955 1800.1656 -5406.0 
3126.4429 1800.1656 -5406.0 
3095.9905 1800.1656 -5406.0 
3065.5383 1800.1656 -5406.0 
3035.0857 1800.1656 -5406.0 
3004.6335 1800.1656 -5406.0 
3020.9448 1828.4702 -5491.0 
2990.0137 1828.4702 -5491.0 
2913.2764 1800.1656 -5406.0 
2975.6118 1858.1066 -5580.0 
2852.3718 1800.1656 -5406.0 
2866.289 1828.4702 -5491.0 
2835.358 1828.4702 -5491.0 
2804.4268 1828.4702 -5491.0 
2730.562 1800.1656 -5406.0 
2700.1099 1800.1656 -5406.0 
2669.6575 1800.1656 -5406.0 
2680.702 1828.4702 -5491.0 
2649.771 1828.4702 -5491.0 
2618.8394 1828.4702 -5491.0 
2587.9087 1828.4702 -5491.0 
2598.4216 1858.1066 -5580.0 
2566.989 1858.1066 -5580.0 
2535.5566 1858.1066 -5580.0 
2545.4106 1888.7421 -5672.0 
2513.46 1888.7421 -5672.0 
2441.2588 1858.1066 -5580.0 
2449.5583 1888.7421 -5672.0 
2458.1 1920.3766 -5767.0 
2425.614 1920.3766 -5767.0 
2393.1282 1920.3766 -5767.0 
2360.6423 1920.3766 -5767.0 
2367.3157 1952.677 -5864.0 
2334.2834 1952.677 -5864.0 
2301.251 1952.677 -5864.0 
2230.6987 1920.3766 -5767.0 
2198.2126 1920.3766 -5767.0 
2165.7268 1920.3766 -5767.0 
2133.2412 1920.3766 -5767.0 
2100.7551 1920.3766 -5767.0 
2068.2693 1920.3766 -5767.0 
2035.7832 1920.3766 -5767.0 
2036.9926 1952.677 -5864.0 
615.13104 599.3892 -1800.0 
604.9915 599.3892 -1800.0 
585.59875 590.06537 -1772.0 
575.61694 590.06537 -1772.0 
565.63513 590.06537 -1772.0 
552.83124 587.0685 -1763.0 
540.1286 584.07153 -1754.0 
527.52747 581.0746 -1745.0 
517.6977 581.0746 -1745.0 
510.4874 584.07153 -1754.0 
500.60703 584.07153 -1754.0 
488.20862 581.0746 -1745.0 
480.84622 584.07153 -1754.0 
470.9658 584.07153 -1754.0 
463.4513 587.0685 -1763.0 
455.8354 590.06537 -1772.0 
445.85358 590.06537 -1772.0 
433.65802 587.0685 -1763.0 
421.56378 584.07153 -1754.0 
411.68338 584.07153 -1754.0 
403.86472 587.0685 -1763.0 
393.9336 587.0685 -1763.0 
378.1216 578.07764 -1736.0 
368.34256 578.07764 -1736.0 
360.4225 581.0746 -1745.0 
352.401 584.07153 -1754.0 
342.52057 584.07153 -1754.0 
329.22656 578.07764 -1736.0 
319.4475 578.07764 -1736.0 
309.66852 578.07764 -1736.0 
299.88956 578.07764 -1736.0 
288.7736 575.4137 -1728.0 
279.03967 575.4137 -1728.0 
267.90305 572.41675 -1719.0 
260.7735 578.07764 -1736.0 
249.83786 575.4137 -1728.0 
237.74174 569.7528 -1711.0 
228.10359 569.7528 -1711.0 
217.31622 566.7558 -1702.0 
208.82722 569.7528 -1711.0 
198.14131 566.7558 -1702.0 
188.5538 566.7558 -1702.0 
179.91269 569.7528 -1711.0 
170.27448 569.7528 -1711.0 
162.23236 575.4137 -1728.0 
153.20445 578.07764 -1736.0 
143.42542 578.07764 -1736.0 
134.3393 581.0746 -1745.0 
125.151726 584.07153 -1754.0 
115.27135 584.07153 -1754.0 
104.850204 581.0746 -1745.0 
95.02046 581.0746 -1745.0 
86.06954 587.0685 -1763.0 
76.527084 590.06537 -1772.0 
66.54531 590.06537 -1772.0 
56.56354 590.06537 -1772.0 
46.581703 590.06537 -1772.0 
36.599934 590.06537 -1772.0 
26.482906 587.0685 -1763.0 
16.551832 587.0685 -1763.0 
6.5869594 584.07153 -1754.0 
-3.276518 581.0746 -1745.0 
-13.106322 581.0746 -1745.0 
-22.817705 578.07764 -1736.0 
-32.446472 575.4137 -1728.0 
-42.375668 578.07764 -1736.0 
-52.15465 578.07764 -1736.0 
-61.933754 578.07764 -1736.0 
-71.71274 578.07764 -1736.0 
-81.491714 578.07764 -1736.0 
-91.270706 578.07764 -1736.0 
-101.049675 578.07764 -1736.0 
-110.82879 578.07764 -1736.0 
-120.607765 578.07764 -1736.0 
-130.38675 578.07764 -1736.0 
-140.16574 578.07764 -1736.0 
-149.9447 578.07764 -1736.0 
-159.72382 578.07764 -1736.0 
-169.50279 578.07764 -1736.0 
-179.28178 578.07764 -1736.0 
-189.06076 578.07764 -1736.0 
-198.83975 578.07764 -1736.0 
-206.57593 572.41675 -1719.0 
-217.39139 575.4137 -1728.0 
-227.1253 575.4137 -1728.0 
-237.9558 578.07764 -1736.0 
-247.73479 578.07764 -1736.0 
-256.32718 575.4137 -1728.0 
-266.0611 575.4137 -1728.0 
-273.08176 569.7528 -1711.0 
-282.7199 569.7528 -1711.0 
-557.37695 1086.2266 -3262.0 
-575.7522 1086.2266 -3262.0 
-599.77344 1096.5493 -3293.0 
-618.3231 1096.5493 -3293.0 
-636.87274 1096.5493 -3293.0 
-649.2523 1086.2266 -3262.0 
-673.9722 1096.5493 -3293.0 
-686.00256 1086.2266 -3262.0 
-704.3776 1086.2266 -3262.0 
-722.7526 1086.2266 -3262.0 
-748.1709 1096.5493 -3293.0 
-759.5029 1086.2266 -3262.0 
-777.8779 1086.2266 -3262.0 
-796.2529 1086.2266 -3262.0 
-410.81024 547.77515 -1645.0 
-420.07663 547.77515 -1645.0 
-429.3431 547.77515 -1645.0 
-438.6095 547.77515 -1645.0 
-447.87585 547.77515 -1645.0 
-457.1422 547.77515 -1645.0 
-468.67685 550.43915 -1653.0 
-1007.09106 1075.9037 -3231.0 
-1025.2917 1075.9037 -3231.0 
-1043.4921 1075.9037 -3231.0 
-1061.6925 1075.9037 -3231.0 
-1069.8661 1065.9138 -3201.0 
-1087.8975 1065.9138 -3201.0 
-1116.294 1075.9037 -3231.0 
-1134.4944 1075.9037 -3231.0 
-1152.6947 1075.9037 -3231.0 
-1170.8951 1075.9037 -3231.0 
-1178.0547 1065.9138 -3201.0 
-1185.2502 1056.2571 -3172.0 
-1203.1183 1056.2571 -3172.0 
-1209.8234 1046.6002 -3143.0 
-1227.5281 1046.6002 -3143.0 
-1245.2328 1046.6002 -3143.0 
-1262.9376 1046.6002 -3143.0 
-1280.6423 1046.6002 -3143.0 
-1298.347 1046.6002 -3143.0 
-1328.1947 1056.2571 -3172.0 
-1346.0629 1056.2571 -3172.0 
-1351.4613 1046.6002 -3143.0 
-1369.166 1046.6002 -3143.0 
-1386.8707 1046.6002 -3143.0 
-1417.5352 1056.2571 -3172.0 
-1435.4033 1056.2571 -3172.0 
-1453.2716 1056.2571 -3172.0 
-1471.1396 1056.2571 -3172.0 
-1489.0077 1056.2571 -3172.0 
-2986.6565 2021.6068 -6071.0 
-3074.5942 2057.57 -6179.0 
-3166.265 2095.1985 -6292.0 
-3144.2075 2057.57 -6179.0 
-3123.45 2021.6068 -6071.0 
-3213.8215 2057.57 -6179.0 
-3308.038 2095.1985 -6292.0 
-3343.4812 2095.1985 -6292.0 
-3378.9243 2095.1985 -6292.0 
-3353.0483 2057.57 -6179.0 
-3387.855 2057.57 -6179.0 
-3362.8384 2021.6068 -6071.0 
-3397.0366 2021.6068 -6071.0 
-3371.8906 1986.6425 -5966.0 
-3405.4978 1986.6425 -5966.0 
-3380.3064 1952.677 -5864.0 
-3472.7114 1986.6425 -5966.0 
-3506.318 1986.6425 -5966.0 
-3602.2268 2021.6068 -6071.0 
-3573.5322 1986.6425 -5966.0 
3156.8955 1769.6544 -5406.0 
3175.6008 1797.4791 -5491.0 
3144.6697 1797.4791 -5491.0 
3113.7385 1797.4791 -5491.0 
3082.8071 1797.4791 -5491.0 
3051.8762 1797.4791 -5491.0 
3020.9448 1797.4791 -5491.0 
3038.4768 1826.6134 -5580.0 
2959.0828 1797.4791 -5491.0 
2975.6118 1826.6134 -5580.0 
2944.1794 1826.6134 -5580.0 
2912.7468 1826.6134 -5580.0 
2835.358 1797.4791 -5491.0 
2849.8818 1826.6134 -5580.0 
2818.4492 1826.6134 -5580.0 
2832.9675 1856.7296 -5672.0 
2755.5842 1826.6134 -5580.0 
2724.1516 1826.6134 -5580.0 
2692.7192 1826.6134 -5580.0 
2661.2866 1826.6134 -5580.0 
2629.8542 1826.6134 -5580.0 
2598.4216 1826.6134 -5580.0 
2609.3123 1856.7296 -5672.0 
2535.5566 1826.6134 -5580.0 
2545.4106 1856.7296 -5672.0 
2555.5579 1887.8279 -5767.0 
2523.0718 1887.8279 -5767.0 
2490.586 1887.8279 -5767.0 
2499.4448 1919.5807 -5864.0 
2425.614 1887.8279 -5767.0 
2393.1282 1887.8279 -5767.0 
2360.6423 1887.8279 -5767.0 
2367.3157 1919.5807 -5864.0 
2334.2834 1919.5807 -5864.0 
2301.251 1919.5807 -5864.0 
2268.2188 1919.5807 -5864.0 
2235.1863 1919.5807 -5864.0 
2165.7268 1887.8279 -5767.0 
2169.1218 1919.5807 -5864.0 
2136.0896 1919.5807 -5864.0 
2068.2693 1887.8279 -5767.0 
2070.0247 1919.5807 -5864.0 
2036.9926 1919.5807 -5864.0 
615.13104 589.2301 -1800.0 
601.63043 585.9566 -1790.0 
585.59875 580.06433 -1772.0 
575.61694 580.06433 -1772.0 
562.76227 577.11816 -1763.0 
552.83124 577.11816 -1763.0 
542.9001 577.11816 -1763.0 
530.2482 574.172 -1754.0 
517.6977 571.2258 -1745.0 
507.86804 571.2258 -1745.0 
498.03836 571.2258 -1745.0 
488.20862 571.2258 -1745.0 
475.91165 568.2797 -1736.0 
468.54916 571.2258 -1745.0 
461.0854 574.172 -1754.0 
453.52023 577.11816 -1763.0 
443.58908 577.11816 -1763.0 
433.65802 577.11816 -1763.0 
421.56378 574.172 -1754.0 
409.57098 571.2258 -1745.0 
401.803 574.172 -1754.0 
389.9116 571.2258 -1745.0 
378.1216 568.2797 -1736.0 
368.34256 568.2797 -1736.0 
358.56357 568.2797 -1736.0 
348.78458 568.2797 -1736.0 
339.00552 568.2797 -1736.0 
327.70938 565.6609 -1728.0 
319.4475 568.2797 -1736.0 
311.27396 571.2258 -1745.0 
301.44427 571.2258 -1745.0 
288.7736 565.6609 -1728.0 
277.58633 562.7147 -1719.0 
269.3057 565.6609 -1728.0 
259.57178 565.6609 -1728.0 
248.53664 562.7147 -1719.0 
237.74174 560.096 -1711.0 
226.90375 557.14984 -1702.0 
217.31622 557.14984 -1702.0 
207.72878 557.14984 -1702.0 
198.14131 557.14984 -1702.0 
188.5538 557.14984 -1702.0 
179.91269 560.096 -1711.0 
171.07062 562.7147 -1719.0 
162.23236 565.6609 -1728.0 
153.20445 568.2797 -1736.0 
143.42542 568.2797 -1736.0 
134.3393 571.2258 -1745.0 
125.151726 574.172 -1754.0 
115.27135 574.172 -1754.0 
104.30942 568.2797 -1736.0 
95.02046 571.2258 -1745.0 
86.06954 577.11816 -1763.0 
76.527084 580.06433 -1772.0 
67.22128 585.9566 -1790.0 
56.850826 583.0105 -1781.0 
46.581703 580.06433 -1772.0 
36.599934 580.06433 -1772.0 
26.6181 580.06433 -1772.0 
16.636328 580.06433 -1772.0 
6.6545568 580.06433 -1772.0 
-3.3103156 577.11816 -1763.0 
-13.173919 574.172 -1754.0 
-23.054296 574.172 -1754.0 
-32.446472 565.6609 -1728.0 
-42.375668 568.2797 -1736.0 
-52.15465 568.2797 -1736.0 
-61.933754 568.2797 -1736.0 
-71.71274 568.2797 -1736.0 
-81.491714 568.2797 -1736.0 
-91.270706 568.2797 -1736.0 
-101.049675 568.2797 -1736.0 
-110.318054 565.6609 -1728.0 
-119.4267 562.7147 -1719.0 
-129.78589 565.6609 -1728.0 
-139.5198 565.6609 -1728.0 
-149.9447 568.2797 -1736.0 
-159.72382 568.2797 -1736.0 
-169.50279 568.2797 -1736.0 
-179.28178 568.2797 -1736.0 
-188.18951 565.6609 -1728.0 
-196.89258 562.7147 -1719.0 
-205.61453 560.096 -1711.0 
-215.2527 560.096 -1711.0 
-225.94237 562.7147 -1719.0 
-236.85922 565.6609 -1728.0 
-246.59312 565.6609 -1728.0 
-256.32718 565.6609 -1728.0 
-264.67538 562.7147 -1719.0 
-273.08176 560.096 -1711.0 
-282.7199 560.096 -1711.0 
-292.35806 560.096 -1711.0 
-307.99744 571.2258 -1745.0 
-314.7308 565.6609 -1728.0 
-612.50226 1067.8159 -3262.0 
-630.8773 1067.8159 -3262.0 
-649.2523 1067.8159 -3262.0 
-667.62756 1067.8159 -3262.0 
-686.00256 1067.8159 -3262.0 
-697.68365 1057.6681 -3231.0 
-715.88403 1057.6681 -3231.0 
-741.1277 1067.8159 -3262.0 
-759.5029 1067.8159 -3262.0 
-777.8779 1067.8159 -3262.0 
-403.49667 541.1097 -1653.0 
-412.8081 541.1097 -1653.0 
-420.07663 538.49084 -1645.0 
-429.3431 538.49084 -1645.0 
-438.6095 538.49084 -1645.0 
-447.87585 538.49084 -1645.0 
-459.36542 541.1097 -1653.0 
-988.8907 1057.6681 -3231.0 
-1007.09106 1057.6681 -3231.0 
-1025.2917 1057.6681 -3231.0 
-1033.8032 1047.8475 -3201.0 
-1051.8346 1047.8475 -3201.0 
-1060.1735 1038.3545 -3172.0 
-1078.0415 1038.3545 -3172.0 
-1105.9291 1047.8475 -3201.0 
-1123.9604 1047.8475 -3201.0 
-1131.6459 1038.3545 -3172.0 
-1149.5139 1038.3545 -3172.0 
-1167.382 1038.3545 -3172.0 
-1196.0863 1047.8475 -3201.0 
-1203.1183 1038.3545 -3172.0 
-1220.9863 1038.3545 -3172.0 
-1238.8542 1038.3545 -3172.0 
-1245.2328 1028.8612 -3143.0 
-1274.5907 1038.3545 -3172.0 
-1280.6423 1028.8612 -3143.0 
-1298.347 1028.8612 -3143.0 
-1316.0518 1028.8612 -3143.0 
-1346.0629 1038.3545 -3172.0 
-1351.4613 1028.8612 -3143.0 
-1369.166 1028.8612 -3143.0 
-1399.6672 1038.3545 -3172.0 
-1404.5754 1028.8612 -3143.0 
-1435.4033 1038.3545 -3172.0 
-1439.985 1028.8612 -3143.0 
-1471.1396 1038.3545 -3172.0 
-1489.0077 1038.3545 -3172.0 
-3039.7878 2022.6962 -6179.0 
-3130.8218 2059.6865 -6292.0 
-3166.265 2059.6865 -6292.0 
-3201.708 2059.6865 -6292.0 
-3237.1516 2059.6865 -6292.0 
-3272.595 2059.6865 -6292.0 
-3369.0254 2097.6592 -6408.0 
-3343.4812 2059.6865 -6292.0 
-3378.9243 2059.6865 -6292.0 
-3353.0483 2022.6962 -6179.0 
-3449.8113 2059.6865 -6292.0 
-3485.2544 2059.6865 -6292.0 
-3457.468 2022.6962 -6179.0 
-3431.2349 1987.3422 -6071.0 
-3527.082 2022.6962 -6179.0 
-3561.8887 2022.6962 -6179.0 
-3596.6953 2022.6962 -6179.0 
-3631.5017 2022.6962 -6179.0 
-3666.3086 2022.6962 -6179.0 
-3701.1155 2022.6962 -6179.0 
3206.5322 1766.488 -5491.0 
3227.072 1795.1199 -5580.0 
3195.6394 1795.1199 -5580.0 
3164.207 1795.1199 -5580.0 
3132.7744 1795.1199 -5580.0 
3051.8762 1766.488 -5491.0 
3020.9448 1766.488 -5491.0 
3038.4768 1795.1199 -5580.0 
3007.0444 1795.1199 -5580.0 
2975.6118 1795.1199 -5580.0 
2944.1794 1795.1199 -5580.0 
2960.7705 1824.7168 -5672.0 
2928.8198 1824.7168 -5672.0 
2896.8691 1824.7168 -5672.0 
2864.9182 1824.7168 -5672.0 
2832.9675 1824.7168 -5672.0 
2801.0166 1824.7168 -5672.0 
2769.0662 1824.7168 -5672.0 
2782.9592 1855.2789 -5767.0 
2750.4731 1855.2789 -5767.0 
2717.9873 1855.2789 -5767.0 
2685.5012 1855.2789 -5767.0 
2653.0154 1855.2789 -5767.0 
2620.5298 1855.2789 -5767.0 
2588.0437 1855.2789 -5767.0 
2598.542 1886.4845 -5864.0 
2565.5095 1886.4845 -5864.0 
2532.4773 1886.4845 -5864.0 
2499.4448 1886.4845 -5864.0 
2466.4124 1886.4845 -5864.0 
2393.1282 1855.2789 -5767.0 
2360.6423 1855.2789 -5767.0 
2367.3157 1886.4845 -5864.0 
2334.2834 1886.4845 -5864.0 
2301.251 1886.4845 -5864.0 
2268.2188 1886.4845 -5864.0 
2235.1863 1886.4845 -5864.0 
2202.154 1886.4845 -5864.0 
2169.1218 1886.4845 -5864.0 
2136.0896 1886.4845 -5864.0 
2103.0571 1886.4845 -5864.0 
2070.0247 1886.4845 -5864.0 
2072.4246 1919.2985 -5966.0 
615.13104 579.071 -1800.0 
604.9915 579.071 -1800.0 
585.59875 570.0632 -1772.0 
575.61694 570.0632 -1772.0 
562.76227 567.1678 -1763.0 
552.83124 567.1678 -1763.0 
542.9001 567.1678 -1763.0 
530.2482 564.27246 -1754.0 
517.6977 561.37714 -1745.0 
505.24866 558.48175 -1736.0 
495.46967 558.48175 -1736.0 
485.6906 558.48175 -1736.0 
475.91165 558.48175 -1736.0 
466.1326 558.48175 -1736.0 
461.0854 564.27246 -1754.0 
451.20502 564.27246 -1754.0 
439.0601 561.37714 -1745.0 
431.4442 564.27246 -1754.0 
417.23758 558.48175 -1736.0 
409.57098 561.37714 -1745.0 
395.847 555.9081 -1728.0 
387.90054 558.48175 -1736.0 
378.1216 558.48175 -1736.0 
368.34256 558.48175 -1736.0 
358.56357 558.48175 -1736.0 
348.78458 558.48175 -1736.0 
337.4433 555.9081 -1728.0 
326.00256 553.01276 -1719.0 
317.9754 555.9081 -1728.0 
309.66852 558.48175 -1736.0 
299.88956 558.48175 -1736.0 
288.7736 555.9081 -1728.0 
277.58633 553.01276 -1719.0 
267.90305 553.01276 -1719.0 
259.57178 555.9081 -1728.0 
248.53664 553.01276 -1719.0 
238.85335 553.01276 -1719.0 
228.10359 550.4391 -1711.0 
217.31622 547.5437 -1702.0 
207.72878 547.5437 -1702.0 
198.14131 547.5437 -1702.0 
188.5538 547.5437 -1702.0 
178.96634 547.5437 -1702.0 
171.07062 553.01276 -1719.0 
162.23236 555.9081 -1728.0 
152.49844 555.9081 -1728.0 
143.42542 558.48175 -1736.0 
135.03217 564.27246 -1754.0 
125.151726 564.27246 -1754.0 
115.27135 564.27246 -1754.0 
104.850204 561.37714 -1745.0 
95.02046 561.37714 -1745.0 
86.06954 567.1678 -1763.0 
76.527084 570.0632 -1772.0 
67.59682 579.071 -1800.0 
57.744606 581.9663 -1809.0 
47.317757 579.071 -1800.0 
36.785824 572.9585 -1781.0 
26.6181 570.0632 -1772.0 
16.636328 570.0632 -1772.0 
6.6545568 570.0632 -1772.0 
-3.3103156 567.1678 -1763.0 
-13.173919 564.27246 -1754.0 
-22.936 561.37714 -1745.0 
-32.596687 558.48175 -1736.0 
-42.59536 561.37714 -1745.0 
-52.425037 561.37714 -1745.0 
-61.933754 558.48175 -1736.0 
-71.71274 558.48175 -1736.0 
-81.491714 558.48175 -1736.0 
-91.270706 558.48175 -1736.0 
-101.049675 558.48175 -1736.0 
-110.318054 555.9081 -1728.0 
-119.4267 553.01276 -1719.0 
-129.10992 553.01276 -1719.0 
-139.5198 555.9081 -1728.0 
-149.9447 558.48175 -1736.0 
-159.72382 558.48175 -1736.0 
-168.72168 555.9081 -1728.0 
-178.4556 555.9081 -1728.0 
-187.20935 553.01276 -1719.0 
-196.89258 553.01276 -1719.0 
-205.61453 550.4391 -1711.0 
-215.2527 550.4391 -1711.0 
-225.94237 553.01276 -1719.0 
-235.62556 553.01276 -1719.0 
-244.16718 550.4391 -1711.0 
-253.80544 550.4391 -1711.0 
-263.4436 550.4391 -1711.0 
-271.64532 547.5437 -1702.0 
-281.2328 547.5437 -1702.0 
-292.35806 550.4391 -1711.0 
-301.99634 550.4391 -1711.0 
-311.6345 550.4391 -1711.0 
-321.27264 550.4391 -1711.0 
-329.1702 547.5437 -1702.0 
-655.4224 1059.3782 -3293.0 
-661.2829 1039.4324 -3231.0 
-354.56787 542.3964 -1686.0 
-691.2056 1029.7811 -3201.0 
-702.8116 1020.4516 -3172.0 
-741.1277 1049.4052 -3262.0 
-386.73645 534.35376 -1661.0 
-396.09296 534.35376 -1661.0 
-403.49667 531.78015 -1653.0 
-410.81024 529.2065 -1645.0 
-420.07663 529.2065 -1645.0 
-429.3431 529.2065 -1645.0 
-438.6095 529.2065 -1645.0 
-447.87585 529.2065 -1645.0 
-461.5886 534.35376 -1661.0 
-470.9451 534.35376 -1661.0 
-482.61505 536.9274 -1669.0 
-489.7014 524.3809 -1630.0 
-501.33176 526.9545 -1638.0 
-510.5587 526.9545 -1638.0 
-1015.77185 1029.7811 -3201.0 
-526.429 524.3809 -1630.0 
-532.9821 521.80725 -1622.0 
-544.7927 524.3809 -1630.0 
-556.69354 526.9545 -1638.0 
-568.33905 529.2065 -1645.0 
-577.60547 529.2065 -1645.0 
-586.8718 529.2065 -1645.0 
-1149.5139 1020.4516 -3172.0 
-1167.382 1020.4516 -3172.0 
-1196.0863 1029.7811 -3201.0 
-1214.1178 1029.7811 -3201.0 
-1232.1492 1029.7811 -3201.0 
-1238.8542 1020.4516 -3172.0 
-1245.2328 1011.1222 -3143.0 
-1274.5907 1020.4516 -3172.0 
-1304.275 1029.7811 -3201.0 
-1310.3268 1020.4516 -3172.0 
-1328.1947 1020.4516 -3172.0 
-1333.7565 1011.1222 -3143.0 
-1363.9312 1020.4516 -3172.0 
-1369.166 1011.1222 -3143.0 
-1399.6672 1020.4516 -3172.0 
-1404.5754 1011.1222 -3143.0 
-1422.2802 1011.1222 -3143.0 
-1439.985 1011.1222 -3143.0 
-1471.1396 1020.4516 -3172.0 
-1475.3944 1011.1222 -3143.0 
-1506.8756 1020.4516 -3172.0 
-3095.3787 2024.1746 -6292.0 
-3130.8218 2024.1746 -6292.0 
-3166.265 2024.1746 -6292.0 
-3260.735 2061.4924 -6408.0 
-3296.832 2061.4924 -6408.0 
-3332.929 2061.4924 -6408.0 
-3369.0254 2061.4924 -6408.0 
-3405.1218 2061.4924 -6408.0 
-3441.2188 2061.4924 -6408.0 
-3477.3154 2061.4924 -6408.0 
-3513.4124 2061.4924 -6408.0 
-3549.5088 2061.4924 -6408.0 
-3585.6055 2061.4924 -6408.0 
-3556.1406 2024.1746 -6292.0 
-3527.082 1987.8218 -6179.0 
-3627.0276 2024.1746 -6292.0 
-3729.9924 2061.4924 -6408.0 
-3766.0889 2061.4924 -6408.0 
-3733.357 2024.1746 -6292.0 
-3768.8008 2024.1746 -6292.0 
3312.229 1792.7043 -5672.0 
3280.278 1792.7043 -5672.0 
3248.3274 1792.7043 -5672.0 
3164.207 1763.6266 -5580.0 
3132.7744 1763.6266 -5580.0 
3101.342 1763.6266 -5580.0 
3120.5244 1792.7043 -5672.0 
3140.304 1822.7302 -5767.0 
3107.818 1822.7302 -5767.0 
3024.672 1792.7043 -5672.0 
2992.7214 1792.7043 -5672.0 
2912.7468 1763.6266 -5580.0 
2928.8198 1792.7043 -5672.0 
2945.3887 1822.7302 -5767.0 
2912.9026 1822.7302 -5767.0 
2880.4167 1822.7302 -5767.0 
2847.9307 1822.7302 -5767.0 
2815.445 1822.7302 -5767.0 
2782.9592 1822.7302 -5767.0 
2796.7356 1853.3882 -5864.0 
2763.7036 1853.3882 -5864.0 
2730.6711 1853.3882 -5864.0 
2697.6387 1853.3882 -5864.0 
2664.6064 1853.3882 -5864.0 
2631.574 1853.3882 -5864.0 
2643.7417 1885.6265 -5966.0 
2565.5095 1853.3882 -5864.0 
2532.4773 1853.3882 -5864.0 
2499.4448 1853.3882 -5864.0 
2466.4124 1853.3882 -5864.0 
2475.7073 1885.6265 -5966.0 
2442.1 1885.6265 -5966.0 
2408.4934 1885.6265 -5966.0 
2416.6838 1918.813 -6071.0 
2424.8687 1952.9478 -6179.0 
2348.287 1918.813 -6071.0 
2314.0886 1918.813 -6071.0 
2240.459 1885.6265 -5966.0 
2206.852 1885.6265 -5966.0 
2136.0896 1853.3882 -5864.0 
2103.0571 1853.3882 -5864.0 
2070.0247 1853.3882 -5864.0 
2072.4246 1885.6265 -5966.0 
2074.7004 1918.813 -6071.0 
601.63043 565.7512 -1790.0 
588.573 562.9066 -1781.0 
575.61694 560.0621 -1772.0 
562.76227 557.2175 -1763.0 
555.6534 560.0621 -1772.0 
542.9001 557.2175 -1763.0 
527.52747 551.5284 -1745.0 
515.02765 548.68384 -1736.0 
505.24866 548.68384 -1736.0 
495.46967 548.68384 -1736.0 
485.6906 548.68384 -1736.0 
473.7185 546.15533 -1728.0 
466.1326 548.68384 -1736.0 
456.35364 548.68384 -1736.0 
446.57465 548.68384 -1736.0 
436.7956 548.68384 -1736.0 
429.2304 551.5284 -1745.0 
419.40067 551.5284 -1745.0 
407.4586 548.68384 -1736.0 
395.847 546.15533 -1728.0 
386.113 546.15533 -1728.0 
376.3791 546.15533 -1728.0 
366.6451 546.15533 -1728.0 
356.9112 546.15533 -1728.0 
347.17728 546.15533 -1728.0 
335.6858 543.3107 -1719.0 
326.00256 543.3107 -1719.0 
317.9754 546.15533 -1728.0 
309.66852 548.68384 -1736.0 
299.88956 548.68384 -1736.0 
288.7736 546.15533 -1728.0 
277.58633 543.3107 -1719.0 
267.90305 543.3107 -1719.0 
258.21985 543.3107 -1719.0 
248.53664 543.3107 -1719.0 
238.85335 543.3107 -1719.0 
229.17012 543.3107 -1719.0 
217.31622 537.93774 -1702.0 
207.72878 537.93774 -1702.0 
197.20999 535.4092 -1694.0 
187.66753 535.4092 -1694.0 
178.96634 537.93774 -1702.0 
169.37881 537.93774 -1702.0 
162.23236 546.15533 -1728.0 
152.49844 546.15533 -1728.0 
143.42542 548.68384 -1736.0 
135.03217 554.3729 -1754.0 
125.151726 554.3729 -1754.0 
115.27135 554.3729 -1754.0 
104.850204 551.5284 -1745.0 
95.02046 551.5284 -1745.0 
86.06954 557.2175 -1763.0 
76.915764 562.9066 -1781.0 
68.31034 574.917 -1819.0 
58.063812 574.917 -1819.0 
47.554348 571.75635 -1809.0 
37.178265 568.9118 -1800.0 
26.888487 565.7512 -1790.0 
16.720823 562.9066 -1781.0 
6.6545568 560.0621 -1772.0 
-3.3272147 560.0621 -1772.0 
-13.241516 557.2175 -1763.0 
-23.172588 557.2175 -1763.0 
-32.93467 554.3729 -1754.0 
-42.81505 554.3729 -1754.0 
-52.425037 551.5284 -1745.0 
-62.25484 551.5284 -1745.0 
-72.08452 551.5284 -1745.0 
-82.33668 554.3729 -1754.0 
-91.74387 551.5284 -1745.0 
-101.57356 551.5284 -1745.0 
-110.318054 546.15533 -1728.0 
-120.05198 546.15533 -1728.0 
-129.78589 546.15533 -1728.0 
-139.5198 546.15533 -1728.0 
-149.25372 546.15533 -1728.0 
-159.72382 548.68384 -1736.0 
-168.72168 546.15533 -1728.0 
-178.4556 546.15533 -1728.0 
-188.18951 546.15533 -1728.0 
-196.89258 543.3107 -1719.0 
-205.61453 540.7823 -1711.0 
-215.2527 540.7823 -1711.0 
-224.89085 540.7823 -1711.0 
-234.529 540.7823 -1711.0 
-244.16718 540.7823 -1711.0 
-253.80544 540.7823 -1711.0 
-263.4436 540.7823 -1711.0 
-271.64532 537.93774 -1702.0 
-281.2328 537.93774 -1702.0 
-290.82022 537.93774 -1702.0 
-300.4078 537.93774 -1702.0 
-309.99527 537.93774 -1702.0 
-319.58273 537.93774 -1702.0 
-329.1702 537.93774 -1702.0 
-338.75763 537.93774 -1702.0 
-348.3452 537.93774 -1702.0 
-357.93268 537.93774 -1702.0 
-364.0652 532.88074 -1686.0 
-369.7959 527.5076 -1669.0 
-379.19742 527.5076 -1669.0 
-386.73645 524.9792 -1661.0 
-396.09296 524.9792 -1661.0 
-403.49667 522.4507 -1653.0 
-410.81024 519.9222 -1645.0 
-420.07663 519.9222 -1645.0 
-429.3431 519.9222 -1645.0 
-440.74255 522.4507 -1653.0 
-450.054 522.4507 -1653.0 
-459.36542 522.4507 -1653.0 
-470.9451 524.9792 -1661.0 
-477.9884 522.4507 -1653.0 
-484.94147 519.9222 -1645.0 
-494.20782 519.9222 -1645.0 
-501.33176 517.7097 -1638.0 
-510.5587 517.7097 -1638.0 
-519.78577 517.7097 -1638.0 
-526.429 515.1813 -1630.0 
-532.9821 512.6528 -1622.0 
-542.11896 512.6528 -1622.0 
-551.25574 512.6528 -1622.0 
-563.1566 515.1813 -1630.0 
-569.5295 512.6528 -1622.0 
-1178.0547 1011.71484 -3201.0 
-1185.2502 1002.549 -3172.0 
-1203.1183 1002.549 -3172.0 
-1220.9863 1002.549 -3172.0 
-1227.5281 993.3832 -3143.0 
-1256.7224 1002.549 -3172.0 
-1262.9376 993.3832 -3143.0 
-1292.4587 1002.549 -3172.0 
-1310.3268 1002.549 -3172.0 
-1328.1947 1002.549 -3172.0 
-1333.7565 993.3832 -3143.0 
-1363.9312 1002.549 -3172.0 
-1381.7992 1002.549 -3172.0 
-1412.4636 1011.71484 -3201.0 
-1404.5754 993.3832 -3143.0 
-1422.2802 993.3832 -3143.0 
-1439.985 993.3832 -3143.0 
-1457.6897 993.3832 -3143.0 
-1475.3944 993.3832 -3143.0 
-1493.0991 993.3832 -3143.0 
-3152.4453 2025.326 -6408.0 
-3188.5417 2025.326 -6408.0 
-3224.6384 2025.326 -6408.0 
-3260.735 2025.326 -6408.0 
-3296.832 2025.326 -6408.0 
-3332.929 2025.326 -6408.0 
-3369.0254 2025.326 -6408.0 
-3405.1218 2025.326 -6408.0 
-3506.7349 2063.8857 -6530.0 
-3543.5193 2063.8857 -6530.0 
-3513.4124 2025.326 -6408.0 
-3617.087 2063.8857 -6530.0 
