ply
format ascii 1.0
comment this is my Proccessing file
element vertex 1658
property float x
property float y
property float z
end_header
-4.0820346 306.74957 -2174.0 
-16.32845 306.74957 -2174.0 
-28.574707 306.74957 -2174.0 
-40.82097 306.74957 -2174.0 
-52.725487 304.7742 -2160.0 
-65.313484 306.74957 -2174.0 
-77.06043 304.7742 -2160.0 
-89.80616 306.74957 -2174.0 
-102.052414 306.74957 -2174.0 
-114.298676 306.74957 -2174.0 
-126.54493 306.74957 -2174.0 
-138.79135 306.74957 -2174.0 
-151.94078 308.58386 -2187.0 
-164.26027 308.58386 -2187.0 
-176.57976 308.58386 -2187.0 
-188.89923 308.58386 -2187.0 
-202.50699 310.55927 -2201.0 
-214.90535 310.55927 -2201.0 
-357.11774 487.9209 -3458.0 
-380.40854 492.85938 -3493.0 
-404.0937 497.79785 -3528.0 
-423.96735 497.79785 -3528.0 
-443.84076 497.79785 -3528.0 
-468.5774 503.0185 -3565.0 
-493.73087 508.23917 -3602.0 
-514.0211 508.23917 -3602.0 
-534.31165 508.23917 -3602.0 
-554.60187 508.23917 -3602.0 
-568.9868 503.0185 -3565.0 
-595.18243 508.23917 -3602.0 
-615.47266 508.23917 -3602.0 
-635.7632 508.23917 -3602.0 
-662.9746 513.60095 -3640.0 
-683.47894 513.60095 -3640.0 
-711.5259 519.1038 -3679.0 
-724.4876 513.60095 -3640.0 
-744.9921 513.60095 -3640.0 
-765.49646 513.60095 -3640.0 
-802.8436 524.6067 -3718.0 
-823.78735 524.6067 -3718.0 
-844.731 524.6067 -3718.0 
-875.2211 530.3917 -3759.0 
-896.3959 530.3917 -3759.0 
-917.57043 530.3917 -3759.0 
-938.74506 530.3917 -3759.0 
-970.3898 536.1768 -3800.0 
-991.7956 536.1768 -3800.0 
-1002.26935 530.3917 -3759.0 
-2861.858 1396.4584 -9897.0 
-2836.2441 1357.515 -9621.0 
-2890.44 1357.515 -9621.0 
-2944.6355 1357.515 -9621.0 
-2998.831 1357.515 -9621.0 
-1546.7108 642.1423 -4551.0 
-1551.9629 633.81744 -4492.0 
-1556.9012 625.63367 -4434.0 
-1581.8782 625.63367 -4434.0 
-1586.5612 617.7321 -4378.0 
-1611.2227 617.7321 -4378.0 
-1635.8844 617.7321 -4378.0 
-1660.5459 617.7321 -4378.0 
-1664.0365 609.9717 -4323.0 
-1688.3882 609.9717 -4323.0 
-1691.7416 602.4934 -4270.0 
-1715.7952 602.4934 -4270.0 
-1739.8481 602.4934 -4270.0 
-1763.9014 602.4934 -4270.0 
-1766.1809 595.15625 -4218.0 
-1789.9412 595.15625 -4218.0 
-1813.7015 595.15625 -4218.0 
-1815.245 587.9602 -4167.0 
-1838.7179 587.9602 -4167.0 
-1839.8463 580.9053 -4117.0 
-1863.0377 580.9053 -4117.0 
-2025.3772 580.9053 -4117.0 
-2048.5686 580.9053 -4117.0 
-2047.1019 573.9914 -4068.0 
-2070.0173 573.9914 -4068.0 
-2092.9326 573.9914 -4068.0 
-2115.848 573.9914 -4068.0 
-2114.053 567.35974 -4021.0 
-2161.6785 573.9914 -4068.0 
-2159.354 567.35974 -4021.0 
-2157.0427 560.86914 -3975.0 
-2130.0884 548.1702 -3885.0 
-2151.973 548.1702 -3885.0 
-2173.8574 548.1702 -3885.0 
-2195.7417 548.1702 -3885.0 
-2193.081 542.10297 -3842.0 
-2214.7234 542.10297 -3842.0 
-2236.3655 542.10297 -3842.0 
-2258.0078 542.10297 -3842.0 
-2254.7292 536.1768 -3800.0 
-2251.577 530.3917 -3759.0 
4550.287 1065.7615 -7868.0 
4505.9663 1065.7615 -7868.0 
4565.418 1090.5498 -8051.0 
4520.0654 1090.5498 -8051.0 
4303.348 1116.6927 -8244.0 
4360.6987 1143.9191 -8445.0 
4210.4707 1116.6927 -8244.0 
4164.0312 1116.6927 -8244.0 
2334.5012 633.1176 -4674.0 
2308.172 633.1176 -4674.0 
2378.5066 659.93774 -4872.0 
2384.842 669.4196 -4942.0 
2556.9773 743.7845 -5491.0 
2653.0154 781.17017 -5767.0 
2664.6064 794.30927 -5864.0 
2677.3481 808.12573 -5966.0 
3641.155 1172.6356 -8657.0 
3504.4163 1143.9191 -8445.0 
3456.845 1143.9191 -8445.0 
3494.8586 1172.6356 -8657.0 
3534.465 1202.7068 -8879.0 
3314.131 1143.9191 -8445.0 
3266.5598 1143.9191 -8445.0 
3142.373 1116.6927 -8244.0 
3095.9343 1116.6927 -8244.0 
2978.1035 1090.5498 -8051.0 
3003.0562 1116.6927 -8244.0 
2887.4001 1090.5498 -8051.0 
2842.048 1090.5498 -8051.0 
2733.1272 1065.7615 -7868.0 
2688.8064 1065.7615 -7868.0 
2644.485 1065.7615 -7868.0 
2724.422 1116.6927 -8244.0 
2677.983 1116.6927 -8244.0 
2631.5442 1116.6927 -8244.0 
2585.1052 1116.6927 -8244.0 
2665.8457 1172.6356 -8657.0 
2552.991 1143.9191 -8445.0 
2505.4197 1143.9191 -8445.0 
2519.5493 1172.6356 -8657.0 
2470.784 1172.6356 -8657.0 
2422.0183 1172.6356 -8657.0 
2498.262 1234.4032 -9113.0 
2384.0964 1202.7068 -8879.0 
2334.0806 1202.7068 -8879.0 
2284.0647 1202.7068 -8879.0 
2292.9253 1234.4032 -9113.0 
2241.5913 1234.4032 -9113.0 
2134.0164 1202.7068 -8879.0 
2084.0005 1202.7068 -8879.0 
2033.9845 1202.7068 -8879.0 
1983.9684 1202.7068 -8879.0 
1984.9205 1234.4032 -9113.0 
666.87823 425.7357 -3143.0 
649.1735 425.7357 -3143.0 
631.4688 425.7357 -3143.0 
613.76404 425.7357 -3143.0 
601.55914 429.66388 -3172.0 
583.691 429.66388 -3172.0 
570.996 433.5921 -3201.0 
552.96454 433.5921 -3201.0 
539.9465 437.65576 -3231.0 
521.74603 437.65576 -3231.0 
503.54553 437.65576 -3231.0 
485.34515 437.65576 -3231.0 
467.14478 437.65576 -3231.0 
448.94424 437.65576 -3231.0 
430.74384 437.65576 -3231.0 
416.5015 441.85486 -3262.0 
398.12646 441.85486 -3262.0 
379.75146 441.85486 -3262.0 
361.3763 441.85486 -3262.0 
343.00128 441.85486 -3262.0 
324.62616 441.85486 -3262.0 
312.07196 450.25308 -3324.0 
293.34772 450.25308 -3324.0 
274.62332 450.25308 -3324.0 
255.89905 450.25308 -3324.0 
237.17465 450.25308 -3324.0 
220.61911 454.7231 -3357.0 
201.70894 454.7231 -3357.0 
123.82609 308.02512 -2274.0 
110.284225 305.9933 -2259.0 
95.65886 300.03326 -2215.0 
83.18164 300.03326 -2215.0 
70.70442 300.03326 -2215.0 
58.227135 300.03326 -2215.0 
45.749916 300.03326 -2215.0 
33.062325 298.1369 -2201.0 
20.66397 298.1369 -2201.0 
8.26562 298.1369 -2201.0 
-4.0820346 294.47958 -2174.0 
-16.32845 294.47958 -2174.0 
-28.390696 292.58322 -2160.0 
-40.55809 292.58322 -2160.0 
-52.725487 292.58322 -2160.0 
-64.89288 292.58322 -2160.0 
-77.06043 292.58322 -2160.0 
-89.80616 294.47958 -2174.0 
-102.052414 294.47958 -2174.0 
-114.298676 294.47958 -2174.0 
-126.54493 294.47958 -2174.0 
-138.79135 294.47958 -2174.0 
-151.03761 294.47958 -2174.0 
-164.26027 296.24054 -2187.0 
-176.57976 296.24054 -2187.0 
-188.89923 296.24054 -2187.0 
-201.21889 296.24054 -2187.0 
-214.90535 298.1369 -2201.0 
-227.30368 298.1369 -2201.0 
-380.40854 473.145 -3493.0 
-400.0848 473.145 -3493.0 
-423.96735 477.88593 -3528.0 
-443.84076 477.88593 -3528.0 
-468.5774 482.89777 -3565.0 
-488.65924 482.89777 -3565.0 
-514.0211 487.90967 -3602.0 
-534.31165 487.90967 -3602.0 
-554.60187 487.90967 -3602.0 
-574.89215 487.90967 -3602.0 
-601.4614 493.05692 -3640.0 
-615.47266 487.90967 -3602.0 
-642.4703 493.05692 -3640.0 
-662.9746 493.05692 -3640.0 
-690.80194 498.3397 -3679.0 
-711.5259 498.3397 -3679.0 
-732.24994 498.3397 -3679.0 
-744.9921 493.05692 -3640.0 
-765.49646 493.05692 -3640.0 
-802.8436 503.62244 -3718.0 
-823.78735 503.62244 -3718.0 
-844.731 503.62244 -3718.0 
-875.2211 509.17612 -3759.0 
-896.3959 509.17612 -3759.0 
-917.57043 509.17612 -3759.0 
-938.74506 509.17612 -3759.0 
-970.3898 514.72974 -3800.0 
-991.7956 514.72974 -3800.0 
-1013.20123 514.72974 -3800.0 
-2861.858 1340.6001 -9897.0 
-2836.2441 1303.2145 -9621.0 
-2890.44 1303.2145 -9621.0 
-2944.6355 1303.2145 -9621.0 
-2998.831 1303.2145 -9621.0 
-1526.659 608.4648 -4492.0 
-1551.9629 608.4648 -4492.0 
-1577.2667 608.4648 -4492.0 
-1581.8782 600.60834 -4434.0 
-1586.5612 593.0228 -4378.0 
-1611.2227 593.0228 -4378.0 
-1635.8844 593.0228 -4378.0 
-1639.6848 585.5728 -4323.0 
-1664.0365 585.5728 -4323.0 
-1688.3882 585.5728 -4323.0 
-1691.7416 578.3937 -4270.0 
-1715.7952 578.3937 -4270.0 
-1718.6604 571.35004 -4218.0 
-1742.4207 571.35004 -4218.0 
-1766.1809 571.35004 -4218.0 
-1789.9412 571.35004 -4218.0 
-1813.7015 571.35004 -4218.0 
-1815.245 564.44183 -4167.0 
-1838.7179 564.44183 -4167.0 
-1862.1908 564.44183 -4167.0 
-1885.6638 564.44183 -4167.0 
-1863.7795 551.03174 -4068.0 
-2049.975 564.44183 -4167.0 
-2048.5686 557.66907 -4117.0 
-2047.1019 551.03174 -4068.0 
-2070.0173 551.03174 -4068.0 
-2092.9326 551.03174 -4068.0 
-2091.4023 544.66534 -4021.0 
-2114.053 544.66534 -4021.0 
-2112.2598 538.4344 -3975.0 
-2134.6511 538.4344 -3975.0 
-2132.6233 532.3389 -3930.0 
-2130.0884 526.2434 -3885.0 
-2151.973 526.2434 -3885.0 
-2149.7964 520.4189 -3842.0 
-2171.4387 520.4189 -3842.0 
-2193.081 520.4189 -3842.0 
-2214.7234 520.4189 -3842.0 
-2211.918 514.72974 -3800.0 
-2258.0078 520.4189 -3842.0 
-2254.7292 514.72974 -3800.0 
-2251.577 509.17612 -3759.0 
4767.7383 1070.1638 -8244.0 
4610.7695 1045.1102 -8051.0 
4565.418 1045.1102 -8051.0 
4628.4214 1070.1638 -8244.0 
4349.7876 1070.1638 -8244.0 
4408.27 1096.256 -8445.0 
4256.9097 1070.1638 -8244.0 
4111.8994 1045.1102 -8051.0 
2268.902 583.11206 -4492.0 
2303.5344 598.6894 -4612.0 
2339.7773 615.04565 -4738.0 
2345.309 623.6132 -4804.0 
2609.3123 736.28937 -5672.0 
2664.6064 761.21313 -5864.0 
2677.3481 774.45386 -5966.0 
3314.131 1096.256 -8445.0 
3188.8123 1070.1638 -8244.0 
3142.373 1070.1638 -8244.0 
3095.9343 1070.1638 -8244.0 
3049.4954 1070.1638 -8244.0 
3003.0562 1070.1638 -8244.0 
2887.4001 1045.1102 -8051.0 
2842.048 1045.1102 -8051.0 
2796.6963 1045.1102 -8051.0 
2751.3445 1045.1102 -8051.0 
2705.9924 1045.1102 -8051.0 
2660.6409 1045.1102 -8051.0 
2615.2888 1045.1102 -8051.0 
2569.937 1045.1102 -8051.0 
2585.1052 1070.1638 -8244.0 
2734.2085 1152.594 -8879.0 
2617.0803 1123.7759 -8657.0 
2568.3147 1123.7759 -8657.0 
2519.5493 1123.7759 -8657.0 
2470.784 1123.7759 -8657.0 
2484.1284 1152.594 -8879.0 
2498.262 1182.9698 -9113.0 
2384.0964 1152.594 -8879.0 
2334.0806 1152.594 -8879.0 
2284.0647 1152.594 -8879.0 
2234.0483 1152.594 -8879.0 
2184.0327 1152.594 -8879.0 
2134.0164 1152.594 -8879.0 
2084.0005 1152.594 -8879.0 
2033.9845 1152.594 -8879.0 
1983.9684 1152.594 -8879.0 
1933.9525 1152.594 -8879.0 
660.9372 404.362 -3115.0 
643.39026 404.362 -3115.0 
631.4688 407.9967 -3143.0 
619.4271 411.76126 -3172.0 
601.55914 411.76126 -3172.0 
583.691 411.76126 -3172.0 
565.82294 411.76126 -3172.0 
547.95483 411.76126 -3172.0 
539.9465 419.42014 -3231.0 
521.74603 419.42014 -3231.0 
503.54553 419.42014 -3231.0 
485.34515 419.42014 -3231.0 
467.14478 419.42014 -3231.0 
453.25165 423.44424 -3262.0 
430.74384 419.42014 -3231.0 
416.5015 423.44424 -3262.0 
398.12646 423.44424 -3262.0 
379.75146 423.44424 -3262.0 
361.3763 423.44424 -3262.0 
343.00128 423.44424 -3262.0 
324.62616 423.44424 -3262.0 
309.16156 427.46838 -3293.0 
290.6119 427.46838 -3293.0 
272.06216 427.46838 -3293.0 
253.51248 427.46838 -3293.0 
237.17465 431.49255 -3324.0 
218.45038 431.49255 -3324.0 
201.70894 435.77634 -3357.0 
186.39256 444.34387 -3423.0 
111.016525 295.19073 -2274.0 
96.30666 289.47906 -2230.0 
83.74495 289.47906 -2230.0 
71.183235 289.47906 -2230.0 
58.227135 287.5319 -2215.0 
45.749916 287.5319 -2215.0 
33.062325 285.71454 -2201.0 
20.66397 285.71454 -2201.0 
8.213045 283.8972 -2187.0 
-4.0820346 282.20963 -2174.0 
-16.223297 280.39227 -2160.0 
-28.390696 280.39227 -2160.0 
-40.55809 280.39227 -2160.0 
-52.725487 280.39227 -2160.0 
-64.89288 280.39227 -2160.0 
-77.06043 280.39227 -2160.0 
-89.80616 282.20963 -2174.0 
-102.052414 282.20963 -2174.0 
-114.298676 282.20963 -2174.0 
-126.54493 282.20963 -2174.0 
-138.79135 282.20963 -2174.0 
-151.03761 282.20963 -2174.0 
-163.28387 282.20963 -2174.0 
-175.53012 282.20963 -2174.0 
-187.77638 282.20963 -2174.0 
-201.21889 283.8972 -2187.0 
-214.90535 285.71454 -2201.0 
-227.30368 285.71454 -2201.0 
-239.70203 285.71454 -2201.0 
-428.41373 462.77707 -3565.0 
-448.4955 462.77707 -3565.0 
-468.5774 462.77707 -3565.0 
-488.65924 462.77707 -3565.0 
-508.74106 462.77707 -3565.0 
-534.31165 467.58008 -3602.0 
-554.60187 467.58008 -3602.0 
-574.89215 467.58008 -3602.0 
-595.18243 467.58008 -3602.0 
-615.47266 467.58008 -3602.0 
-642.4703 472.5129 -3640.0 
-662.9746 472.5129 -3640.0 
-683.47894 472.5129 -3640.0 
-703.9832 472.5129 -3640.0 
-724.4876 472.5129 -3640.0 
-744.9921 472.5129 -3640.0 
-765.49646 472.5129 -3640.0 
-802.8436 482.63815 -3718.0 
-823.78735 482.63815 -3718.0 
-854.04626 487.96048 -3759.0 
-865.675 482.63815 -3718.0 
-886.61865 482.63815 -3718.0 
-917.57043 487.96048 -3759.0 
-938.74506 487.96048 -3759.0 
-959.91974 487.96048 -3759.0 
-981.09467 487.96048 -3759.0 
-2861.858 1284.7418 -9897.0 
-2836.2441 1248.914 -9621.0 
-2973.3586 1284.7418 -9897.0 
-2944.6355 1248.914 -9621.0 
-1501.3552 583.11206 -4492.0 
-1526.659 583.11206 -4492.0 
-1551.9629 583.11206 -4492.0 
-1577.2667 583.11206 -4492.0 
-1581.8782 575.58307 -4434.0 
-1606.8551 575.58307 -4434.0 
-1631.832 575.58307 -4434.0 
-1635.8844 568.3136 -4378.0 
-1639.6848 561.17395 -4323.0 
-1664.0365 561.17395 -4323.0 
-1688.3882 561.17395 -4323.0 
-1712.7399 561.17395 -4323.0 
-1715.7952 554.294 -4270.0 
-1739.8481 554.294 -4270.0 
-1742.4207 547.54376 -4218.0 
-1766.1809 547.54376 -4218.0 
-1768.2988 540.9234 -4167.0 
-1791.772 540.9234 -4167.0 
-1815.245 540.9234 -4167.0 
-1861.222 547.54376 -4218.0 
-1862.1908 540.9234 -4167.0 
-1885.6638 540.9234 -4167.0 
-1886.2291 534.43286 -4117.0 
-2075.0647 547.54376 -4218.0 
-2024.1866 528.0721 -4068.0 
-2023.4506 521.971 -4021.0 
-2046.1011 521.971 -4021.0 
-2068.752 521.971 -4021.0 
-2067.4768 515.9997 -3975.0 
-2089.8682 515.9997 -3975.0 
-2112.2598 515.9997 -3975.0 
-2110.485 510.15817 -3930.0 
-2132.6233 510.15817 -3930.0 
-2130.0884 504.31668 -3885.0 
-2128.1543 498.73477 -3842.0 
-2149.7964 498.73477 -3842.0 
-2171.4387 498.73477 -3842.0 
-2193.081 498.73477 -3842.0 
-2214.7234 498.73477 -3842.0 
-2211.918 493.2827 -3800.0 
-2233.3237 493.2827 -3800.0 
-2254.7292 493.2827 -3800.0 
-2276.1353 493.2827 -3800.0 
4767.7383 1023.6348 -8244.0 
4721.3 1023.6348 -8244.0 
4565.418 999.6706 -8051.0 
4455.8413 1048.5924 -8445.0 
4408.27 1048.5924 -8445.0 
4256.9097 1023.6348 -8244.0 
4111.8994 999.6706 -8051.0 
3974.1145 976.9479 -7868.0 
2334.5012 580.3577 -4674.0 
2339.7773 588.3044 -4738.0 
2345.309 596.49945 -4804.0 
2441.0261 650.88477 -5242.0 
2526.0461 681.80237 -5491.0 
2620.5298 716.0725 -5767.0 
2631.574 728.11676 -5864.0 
2690.271 753.8194 -6071.0 
3235.2512 1023.6348 -8244.0 
3188.8123 1023.6348 -8244.0 
3068.8071 999.6706 -8051.0 
3023.4553 999.6706 -8051.0 
3049.4954 1023.6348 -8244.0 
3003.0562 1023.6348 -8244.0 
2956.6172 1023.6348 -8244.0 
2910.178 1023.6348 -8244.0 
2796.6963 999.6706 -8051.0 
2751.3445 999.6706 -8051.0 
2705.9924 999.6706 -8051.0 
2433.936 914.4918 -7365.0 
2248.5442 859.4857 -6922.0 
2209.5522 859.4857 -6922.0 
2170.5603 859.4857 -6922.0 
2754.9326 1131.5361 -9113.0 
2568.3147 1074.9159 -8657.0 
2519.5493 1074.9159 -8657.0 
2534.1448 1102.4811 -8879.0 
2549.5962 1131.5361 -9113.0 
2498.262 1131.5361 -9113.0 
2384.0964 1102.4811 -8879.0 
2334.0806 1102.4811 -8879.0 
2284.0647 1102.4811 -8879.0 
2234.0483 1102.4811 -8879.0 
2184.0327 1102.4811 -8879.0 
2134.0164 1102.4811 -8879.0 
2084.0005 1102.4811 -8879.0 
2033.9845 1102.4811 -8879.0 
1983.9684 1102.4811 -8879.0 
1933.9525 1102.4811 -8879.0 
660.9372 386.781 -3115.0 
643.39026 386.781 -3115.0 
631.4688 390.2577 -3143.0 
619.4271 393.85852 -3172.0 
601.55914 393.85852 -3172.0 
589.02734 397.45935 -3201.0 
570.996 397.45935 -3201.0 
547.95483 393.85852 -3172.0 
534.93304 397.45935 -3201.0 
516.9016 397.45935 -3201.0 
503.54553 401.1844 -3231.0 
485.34515 401.1844 -3231.0 
467.14478 401.1844 -3231.0 
448.94424 401.1844 -3231.0 
430.74384 401.1844 -3231.0 
416.5015 405.03357 -3262.0 
398.12646 405.03357 -3262.0 
379.75146 405.03357 -3262.0 
361.3763 405.03357 -3262.0 
343.00128 405.03357 -3262.0 
324.62616 405.03357 -3262.0 
309.16156 408.88278 -3293.0 
290.6119 408.88278 -3293.0 
272.06216 408.88278 -3293.0 
253.51248 408.88278 -3293.0 
237.17465 412.73193 -3324.0 
218.45038 412.73193 -3324.0 
201.70894 416.82947 -3357.0 
122.1925 278.63132 -2244.0 
110.284225 280.49384 -2259.0 
96.91127 278.63132 -2244.0 
83.74495 276.89297 -2230.0 
71.183235 276.89297 -2230.0 
58.227135 275.03046 -2215.0 
45.460754 273.2921 -2201.0 
33.062325 273.2921 -2201.0 
20.532534 271.55377 -2187.0 
8.164225 269.9396 -2174.0 
-4.055747 268.20126 -2160.0 
-16.223297 268.20126 -2160.0 
-28.390696 268.20126 -2160.0 
-40.55809 268.20126 -2160.0 
-52.725487 268.20126 -2160.0 
-64.89288 268.20126 -2160.0 
-77.06043 268.20126 -2160.0 
-89.22783 268.20126 -2160.0 
-102.052414 269.9396 -2174.0 
-114.298676 269.9396 -2174.0 
-126.54493 269.9396 -2174.0 
-138.79135 269.9396 -2174.0 
-151.03761 269.9396 -2174.0 
-163.28387 269.9396 -2174.0 
-175.53012 269.9396 -2174.0 
-188.89923 271.55377 -2187.0 
-201.21889 271.55377 -2187.0 
-214.90535 273.2921 -2201.0 
-227.30368 273.2921 -2201.0 
-239.70203 273.2921 -2201.0 
-252.10039 273.2921 -2201.0 
-267.9839 276.89297 -2230.0 
-453.15033 447.25043 -3602.0 
-468.5774 442.65625 -3565.0 
-483.58755 438.06204 -3528.0 
-503.461 438.06204 -3528.0 
-534.31165 447.25043 -3602.0 
-554.60187 447.25043 -3602.0 
-574.89215 447.25043 -3602.0 
-595.18243 447.25043 -3602.0 
-615.47266 447.25043 -3602.0 
-642.4703 451.9688 -3640.0 
-662.9746 451.9688 -3640.0 
-683.47894 451.9688 -3640.0 
-703.9832 451.9688 -3640.0 
-724.4876 451.9688 -3640.0 
-744.9921 451.9688 -3640.0 
-773.69824 456.8113 -3679.0 
-794.4222 456.8113 -3679.0 
-815.1462 456.8113 -3679.0 
-854.04626 466.74466 -3759.0 
-865.675 461.65384 -3718.0 
-886.61865 461.65384 -3718.0 
-917.57043 466.74466 -3759.0 
-938.74506 466.74466 -3759.0 
-959.91974 466.74466 -3759.0 
-981.09467 466.74466 -3759.0 
-1002.26935 466.74466 -3759.0 
-2782.0488 1194.613 -9621.0 
-2836.2441 1194.613 -9621.0 
-2890.44 1194.613 -9621.0 
-1481.97 550.55756 -4434.0 
-1526.659 557.7593 -4492.0 
-1551.9629 557.7593 -4492.0 
-1577.2667 557.7593 -4492.0 
-1581.8782 550.55756 -4434.0 
-1606.8551 550.55756 -4434.0 
-1590.9812 536.775 -4323.0 
-1615.333 536.775 -4323.0 
-1639.6848 536.775 -4323.0 
-1664.0365 536.775 -4323.0 
-1667.6886 530.19415 -4270.0 
-1691.7416 530.19415 -4270.0 
-1715.7952 530.19415 -4270.0 
-1739.8481 530.19415 -4270.0 
-1742.4207 523.7375 -4218.0 
-1766.1809 523.7375 -4218.0 
-1768.2988 517.40497 -4167.0 
-1791.772 517.40497 -4167.0 
-1815.245 517.40497 -4167.0 
-1838.7179 517.40497 -4167.0 
-1862.1908 517.40497 -4167.0 
-1885.6638 517.40497 -4167.0 
-1909.137 517.40497 -4167.0 
-1956.2632 523.7375 -4218.0 
-2000.8 499.27652 -4021.0 
-2000.3025 493.56482 -3975.0 
-2022.6937 493.56482 -3975.0 
-2045.0856 493.56482 -3975.0 
-2044.0714 487.9773 -3930.0 
-2066.2095 487.9773 -3930.0 
-2088.3474 487.9773 -3930.0 
-2110.485 487.9773 -3930.0 
-2132.6233 487.9773 -3930.0 
-2106.5122 477.0506 -3842.0 
-2104.89 471.83554 -3800.0 
-2149.7964 477.0506 -3842.0 
-2171.4387 477.0506 -3842.0 
-2169.107 471.83554 -3800.0 
-2166.878 466.74466 -3759.0 
-2188.0527 466.74466 -3759.0 
-2209.2273 466.74466 -3759.0 
-2254.7292 471.83554 -3800.0 
-2301.2925 477.0506 -3842.0 
4550.287 932.5412 -7868.0 
4610.7695 954.231 -8051.0 
4461.6455 932.5412 -7868.0 
4319.074 911.7996 -7693.0 
4455.8413 1000.9292 -8445.0 
4408.27 1000.9292 -8445.0 
4360.6987 1000.9292 -8445.0 
4210.4707 977.10596 -8244.0 
3885.7224 911.7996 -7693.0 
2366.467 561.56335 -4738.0 
2339.7773 561.56335 -4738.0 
2378.5066 577.44543 -4872.0 
2419.1042 594.1573 -5013.0 
2390.8655 594.1573 -5013.0 
2470.555 621.2991 -5242.0 
2478.2795 630.78094 -5322.0 
2486.943 640.73694 -5406.0 
2535.5566 661.3599 -5580.0 
2631.574 695.02057 -5864.0 
2690.271 719.5549 -6071.0 
3235.2512 977.10596 -8244.0 
3114.1592 954.231 -8051.0 
3068.8071 954.231 -8051.0 
3095.9343 977.10596 -8244.0 
3049.4954 977.10596 -8244.0 
3003.0562 977.10596 -8244.0 
2956.6172 977.10596 -8244.0 
2910.178 977.10596 -8244.0 
2796.6963 954.231 -8051.0 
2751.3445 954.231 -8051.0 
2705.9924 954.231 -8051.0 
2433.936 872.924 -7365.0 
2204.366 804.2991 -6786.0 
2124.324 788.77246 -6655.0 
2127.914 804.2991 -6786.0 
2089.688 804.2991 -6786.0 
2568.3147 1026.0562 -8657.0 
2519.5493 1026.0562 -8657.0 
2470.784 1026.0562 -8657.0 
2484.1284 1052.3683 -8879.0 
2498.262 1080.1027 -9113.0 
2384.0964 1052.3683 -8879.0 
2334.0806 1052.3683 -8879.0 
2284.0647 1052.3683 -8879.0 
2234.0483 1052.3683 -8879.0 
2129.4255 1026.0562 -8657.0 
2134.0164 1052.3683 -8879.0 
2084.0005 1052.3683 -8879.0 
2033.9845 1052.3683 -8879.0 
1983.9684 1052.3683 -8879.0 
1933.9525 1052.3683 -8879.0 
660.9372 369.20004 -3115.0 
649.1735 372.5187 -3143.0 
631.4688 372.5187 -3143.0 
619.4271 375.95587 -3172.0 
601.55914 375.95587 -3172.0 
589.02734 379.39304 -3201.0 
570.996 379.39304 -3201.0 
552.96454 379.39304 -3201.0 
534.93304 379.39304 -3201.0 
516.9016 379.39304 -3201.0 
503.54553 382.94873 -3231.0 
485.34515 382.94873 -3231.0 
467.14478 382.94873 -3231.0 
448.94424 382.94873 -3231.0 
430.74384 382.94873 -3231.0 
416.5015 386.623 -3262.0 
398.12646 386.623 -3262.0 
379.75146 386.623 -3262.0 
361.3763 386.623 -3262.0 
343.00128 386.623 -3262.0 
324.62616 386.623 -3262.0 
309.16156 390.2972 -3293.0 
290.6119 390.2972 -3293.0 
272.06216 390.2972 -3293.0 
253.51248 390.2972 -3293.0 
237.17465 393.97144 -3324.0 
220.61911 397.8827 -3357.0 
203.6918 401.79395 -3390.0 
121.43015 264.30695 -2230.0 
109.551926 265.96628 -2244.0 
96.91127 265.96628 -2244.0 
84.2707 265.96628 -2244.0 
71.63013 265.96628 -2244.0 
58.62145 264.30695 -2230.0 
45.460754 260.86975 -2201.0 
32.852024 259.21042 -2187.0 
20.532534 259.21042 -2187.0 
8.164225 257.66965 -2174.0 
-4.0313373 254.4695 -2147.0 
-16.020506 252.81018 -2133.0 
-28.219824 254.4695 -2147.0 
-40.31399 254.4695 -2147.0 
-52.725487 256.0103 -2160.0 
-64.89288 256.0103 -2160.0 
-77.06043 256.0103 -2160.0 
-89.22783 256.0103 -2160.0 
-102.052414 257.66965 -2174.0 
-114.298676 257.66965 -2174.0 
-126.54493 257.66965 -2174.0 
-138.79135 257.66965 -2174.0 
-151.03761 257.66965 -2174.0 
-163.28387 257.66965 -2174.0 
-175.53012 257.66965 -2174.0 
-187.77638 257.66965 -2174.0 
-201.21889 259.21042 -2187.0 
-214.90535 260.86975 -2201.0 
-227.30368 260.86975 -2201.0 
-241.22672 262.52908 -2215.0 
-253.70395 262.52908 -2215.0 
-266.1813 262.52908 -2215.0 
-280.5456 264.30695 -2230.0 
-459.11383 414.00186 -3493.0 
-483.58755 418.15018 -3528.0 
-503.461 418.15018 -3528.0 
-534.31165 426.9209 -3602.0 
-554.60187 426.9209 -3602.0 
-574.89215 426.9209 -3602.0 
-595.18243 426.9209 -3602.0 
-615.47266 426.9209 -3602.0 
-642.4703 431.42477 -3640.0 
-662.9746 431.42477 -3640.0 
-683.47894 431.42477 -3640.0 
-703.9832 431.42477 -3640.0 
-724.4876 431.42477 -3640.0 
-744.9921 431.42477 -3640.0 
-765.49646 431.42477 -3640.0 
-794.4222 436.04718 -3679.0 
-815.1462 436.04718 -3679.0 
-844.731 440.6696 -3718.0 
-865.675 440.6696 -3718.0 
-886.61865 440.6696 -3718.0 
-907.5624 440.6696 -3718.0 
-938.74506 445.52902 -3759.0 
-959.91974 445.52902 -3759.0 
-981.09467 445.52902 -3759.0 
-1002.26935 445.52902 -3759.0 
-2861.858 1173.025 -9897.0 
-2836.2441 1140.3126 -9621.0 
-2890.44 1140.3126 -9621.0 
-1481.97 525.5322 -4434.0 
-1526.659 532.4066 -4492.0 
-1551.9629 532.4066 -4492.0 
-1577.2667 532.4066 -4492.0 
-1581.8782 525.5322 -4434.0 
-1586.5612 518.89496 -4378.0 
-1590.9812 512.3762 -4323.0 
-1615.333 512.3762 -4323.0 
-1639.6848 512.3762 -4323.0 
-1664.0365 512.3762 -4323.0 
-1667.6886 506.09448 -4270.0 
-1691.7416 506.09448 -4270.0 
-1715.7952 506.09448 -4270.0 
-1739.8481 506.09448 -4270.0 
-1742.4207 499.93124 -4218.0 
-1744.8258 493.88654 -4167.0 
-1768.2988 493.88654 -4167.0 
-1813.7015 499.93124 -4218.0 
-1837.4618 499.93124 -4218.0 
-1838.7179 493.88654 -4167.0 
-1862.1908 493.88654 -4167.0 
-1885.6638 493.88654 -4167.0 
-1886.2291 487.96036 -4117.0 
-1932.61 493.88654 -4167.0 
-2000.8 476.58215 -4021.0 
-2000.3025 471.1301 -3975.0 
-2022.6937 471.1301 -3975.0 
-2021.9336 465.79654 -3930.0 
-2044.0714 465.79654 -3930.0 
-2066.2095 465.79654 -3930.0 
-2088.3474 465.79654 -3930.0 
-2110.485 465.79654 -3930.0 
-2108.204 460.46298 -3885.0 
-2106.5122 455.3665 -3842.0 
-2104.89 450.3885 -3800.0 
-2126.2954 450.3885 -3800.0 
-2171.4387 455.3665 -3842.0 
-2169.107 450.3885 -3800.0 
-2166.878 445.52902 -3759.0 
-2188.0527 445.52902 -3759.0 
-2209.2273 445.52902 -3759.0 
-2230.4019 445.52902 -3759.0 
-2276.1353 450.3885 -3800.0 
4701.473 908.79144 -8051.0 
4550.287 888.1346 -7868.0 
4505.9663 888.1346 -7868.0 
4565.418 908.79144 -8051.0 
4455.8413 953.2659 -8445.0 
4408.27 953.2659 -8445.0 
4360.6987 953.2659 -8445.0 
4313.1274 953.2659 -8445.0 
2366.467 534.82227 -4738.0 
2339.7773 534.82227 -4738.0 
2378.5066 549.94806 -4872.0 
2419.1042 565.8641 -5013.0 
2426.1587 574.21716 -5087.0 
2470.555 591.71344 -5242.0 
2478.2795 600.7438 -5322.0 
2448.3003 600.7438 -5322.0 
2535.5566 629.86664 -5580.0 
2677.3481 673.43805 -5966.0 
2643.7417 673.43805 -5966.0 
3314.131 953.2659 -8445.0 
3188.8123 930.5772 -8244.0 
3068.8071 908.79144 -8051.0 
3023.4553 908.79144 -8051.0 
2978.1035 908.79144 -8051.0 
2932.7515 908.79144 -8051.0 
2956.6172 930.5772 -8244.0 
2910.178 930.5772 -8244.0 
2796.6963 908.79144 -8051.0 
2751.3445 908.79144 -8051.0 
2705.9924 908.79144 -8051.0 
2334.4636 797.3796 -7064.0 
2161.8118 751.2119 -6655.0 
2166.14 765.99915 -6786.0 
2127.914 765.99915 -6786.0 
2131.5679 781.3507 -6922.0 
2568.3147 977.19635 -8657.0 
2519.5493 977.19635 -8657.0 
2534.1448 1002.25555 -8879.0 
2484.1284 1002.25555 -8879.0 
2498.262 1028.6693 -9113.0 
2384.0964 1002.25555 -8879.0 
2334.0806 1002.25555 -8879.0 
2284.0647 1002.25555 -8879.0 
2234.0483 1002.25555 -8879.0 
2184.0327 1002.25555 -8879.0 
2134.0164 1002.25555 -8879.0 
2031.8947 977.19635 -8657.0 
1983.1293 977.19635 -8657.0 
1983.9684 1002.25555 -8879.0 
1933.9525 1002.25555 -8879.0 
660.9372 351.6191 -3115.0 
649.1735 354.77972 -3143.0 
631.4688 354.77972 -3143.0 
619.4271 358.05322 -3172.0 
596.0594 354.77972 -3143.0 
583.691 358.05322 -3172.0 
565.82294 358.05322 -3172.0 
547.95483 358.05322 -3172.0 
539.9465 364.7131 -3231.0 
516.9016 361.32672 -3201.0 
503.54553 364.7131 -3231.0 
485.34515 364.7131 -3231.0 
467.14478 364.7131 -3231.0 
448.94424 364.7131 -3231.0 
430.74384 364.7131 -3231.0 
412.5433 364.7131 -3231.0 
398.12646 368.21237 -3262.0 
379.75146 368.21237 -3262.0 
361.3763 368.21237 -3262.0 
343.00128 368.21237 -3262.0 
324.62616 368.21237 -3262.0 
309.16156 371.71164 -3293.0 
290.6119 371.71164 -3293.0 
274.62332 375.21088 -3324.0 
255.89905 375.21088 -3324.0 
237.17465 375.21088 -3324.0 
220.61911 378.9359 -3357.0 
201.70894 378.9359 -3357.0 
122.1925 253.30121 -2244.0 
109.551926 253.30121 -2244.0 
96.30666 251.7209 -2230.0 
83.74495 251.7209 -2230.0 
71.183235 251.7209 -2230.0 
58.227135 250.02771 -2215.0 
45.460754 248.4474 -2201.0 
33.062325 248.4474 -2201.0 
20.532534 246.8671 -2187.0 
8.111649 243.81935 -2160.0 
-3.9806406 239.30417 -2120.0 
-16.020506 240.7716 -2133.0 
-28.219824 242.35191 -2147.0 
-40.31399 242.35191 -2147.0 
-52.725487 243.81935 -2160.0 
-64.89288 243.81935 -2160.0 
-77.06043 243.81935 -2160.0 
-89.22783 243.81935 -2160.0 
-102.052414 245.39966 -2174.0 
-114.298676 245.39966 -2174.0 
-126.54493 245.39966 -2174.0 
-138.79135 245.39966 -2174.0 
-151.03761 245.39966 -2174.0 
-163.28387 245.39966 -2174.0 
-175.53012 245.39966 -2174.0 
-187.77638 245.39966 -2174.0 
-200.0228 245.39966 -2174.0 
-213.53838 246.8671 -2187.0 
-227.30368 248.4474 -2201.0 
-239.70203 248.4474 -2201.0 
-252.10039 248.4474 -2201.0 
-266.1813 250.02771 -2215.0 
-278.65854 250.02771 -2215.0 
-293.1073 251.7209 -2230.0 
-498.46634 394.2875 -3493.0 
-534.31165 406.59134 -3602.0 
-554.60187 406.59134 -3602.0 
-574.89215 406.59134 -3602.0 
-595.18243 406.59134 -3602.0 
-615.47266 406.59134 -3602.0 
-635.7632 406.59134 -3602.0 
-662.9746 410.88077 -3640.0 
-683.47894 410.88077 -3640.0 
-703.9832 410.88077 -3640.0 
-724.4876 410.88077 -3640.0 
-752.9742 415.28305 -3679.0 
-773.69824 415.28305 -3679.0 
-794.4222 415.28305 -3679.0 
-815.1462 415.28305 -3679.0 
-844.731 419.68533 -3718.0 
-865.675 419.68533 -3718.0 
-886.61865 419.68533 -3718.0 
-907.5624 419.68533 -3718.0 
-938.74506 424.3134 -3759.0 
-959.91974 424.3134 -3759.0 
-991.7956 428.94144 -3800.0 
-1013.20123 428.94144 -3800.0 
-2649.5903 977.19635 -8657.0 
-1501.3552 507.05396 -4492.0 
-1526.659 507.05396 -4492.0 
-1551.9629 507.05396 -4492.0 
-1577.2667 507.05396 -4492.0 
-1581.8782 500.50693 -4434.0 
-1586.5612 494.1857 -4378.0 
-1590.9812 487.97733 -4323.0 
-1615.333 487.97733 -4323.0 
-1639.6848 487.97733 -4323.0 
-1643.6354 481.99472 -4270.0 
-1667.6886 481.99472 -4270.0 
-1691.7416 481.99472 -4270.0 
-1715.7952 481.99472 -4270.0 
-1739.8481 481.99472 -4270.0 
-1742.4207 476.125 -4218.0 
-1766.1809 476.125 -4218.0 
-1768.2988 470.36816 -4167.0 
-1813.7015 476.125 -4218.0 
-1837.4618 476.125 -4218.0 
-1838.7179 470.36816 -4167.0 
-1839.8463 464.72418 -4117.0 
-1863.0377 464.72418 -4117.0 
-1886.2291 464.72418 -4117.0 
-1909.4205 464.72418 -4117.0 
-1978.1495 453.8878 -4021.0 
-1977.911 448.69534 -3975.0 
-1977.6576 443.61575 -3930.0 
-1999.7954 443.61575 -3930.0 
-2021.9336 443.61575 -3930.0 
-2044.0714 443.61575 -3930.0 
-2042.5505 438.5362 -3885.0 
-2064.435 438.5362 -3885.0 
-2086.3193 438.5362 -3885.0 
-2108.204 438.5362 -3885.0 
-2106.5122 433.68237 -3842.0 
-2128.1543 433.68237 -3842.0 
-2149.7964 433.68237 -3842.0 
-2171.4387 433.68237 -3842.0 
-2193.081 433.68237 -3842.0 
-2166.878 424.3134 -3759.0 
-2188.0527 424.3134 -3759.0 
-2209.2273 424.3134 -3759.0 
-2230.4019 424.3134 -3759.0 
-2276.1353 428.94144 -3800.0 
4701.473 863.3519 -8051.0 
4449.0796 824.96173 -7693.0 
4505.9663 843.7279 -7868.0 
4788.8403 905.60266 -8445.0 
4247.955 863.3519 -8051.0 
4303.348 884.04834 -8244.0 
4256.9097 884.04834 -8244.0 
2334.5012 501.2181 -4674.0 
2339.7773 508.08115 -4738.0 
2378.5066 522.45074 -4872.0 
2419.1042 537.57086 -5013.0 
2426.1587 545.50635 -5087.0 
2470.555 562.1278 -5242.0 
2517.3955 579.7144 -5406.0 
2526.0461 588.8294 -5491.0 
2620.5298 618.4264 -5767.0 
2677.3481 639.7662 -5966.0 
3314.131 905.60266 -8445.0 
3266.5598 905.60266 -8445.0 
3142.373 884.04834 -8244.0 
3023.4553 863.3519 -8051.0 
2910.4111 843.7279 -7868.0 
2866.09 843.7279 -7868.0 
2887.4001 863.3519 -8051.0 
2842.048 863.3519 -8051.0 
2796.6963 863.3519 -8051.0 
2688.8064 843.7279 -7868.0 
2374.2554 757.5106 -7064.0 
2287.5364 742.2832 -6922.0 
2204.366 727.6992 -6786.0 
2166.14 727.6992 -6786.0 
2127.914 727.6992 -6786.0 
2568.3147 928.33655 -8657.0 
2519.5493 928.33655 -8657.0 
2470.784 928.33655 -8657.0 
2484.1284 952.1429 -8879.0 
2434.1128 952.1429 -8879.0 
2384.0964 952.1429 -8879.0 
2275.722 928.33655 -8657.0 
2226.9565 928.33655 -8657.0 
2178.191 928.33655 -8657.0 
2129.4255 928.33655 -8657.0 
2134.0164 952.1429 -8879.0 
2084.0005 952.1429 -8879.0 
2033.9845 952.1429 -8879.0 
1983.9684 952.1429 -8879.0 
1933.9525 952.1429 -8879.0 
660.9372 334.03818 -3115.0 
643.39026 334.03818 -3115.0 
631.4688 337.04074 -3143.0 
613.76404 337.04074 -3143.0 
596.0594 337.04074 -3143.0 
583.691 340.15057 -3172.0 
565.82294 340.15057 -3172.0 
552.96454 343.2604 -3201.0 
534.93304 343.2604 -3201.0 
516.9016 343.2604 -3201.0 
503.54553 346.47748 -3231.0 
485.34515 346.47748 -3231.0 
467.14478 346.47748 -3231.0 
448.94424 346.47748 -3231.0 
430.74384 346.47748 -3231.0 
412.5433 346.47748 -3231.0 
398.12646 349.80176 -3262.0 
376.14255 346.47748 -3231.0 
357.94202 346.47748 -3231.0 
343.00128 349.80176 -3262.0 
324.62616 349.80176 -3262.0 
309.16156 353.12607 -3293.0 
290.6119 353.12607 -3293.0 
274.62332 356.45035 -3324.0 
255.89905 356.45035 -3324.0 
237.17465 356.45035 -3324.0 
220.61911 359.98914 -3357.0 
199.72612 356.45035 -3324.0 
181.00172 356.45035 -3324.0 
109.551926 240.63615 -2244.0 
96.91127 240.63615 -2244.0 
83.74495 239.13486 -2230.0 
71.183235 239.13486 -2230.0 
58.227135 237.52632 -2215.0 
45.460754 236.02505 -2201.0 
32.852024 234.52376 -2187.0 
20.410484 233.12968 -2174.0 
8.062829 230.23434 -2147.0 
-4.0050507 228.73303 -2133.0 
-16.020506 228.73303 -2133.0 
-28.219824 230.23434 -2147.0 
-40.55809 231.62839 -2160.0 
-52.725487 231.62839 -2160.0 
-64.89288 231.62839 -2160.0 
-77.06043 231.62839 -2160.0 
-89.22783 231.62839 -2160.0 
-101.395226 231.62839 -2160.0 
-113.56262 231.62839 -2160.0 
-126.54493 233.12968 -2174.0 
-138.79135 233.12968 -2174.0 
-151.03761 233.12968 -2174.0 
-163.28387 233.12968 -2174.0 
-175.53012 233.12968 -2174.0 
-187.77638 233.12968 -2174.0 
-200.0228 233.12968 -2174.0 
-213.53838 234.52376 -2187.0 
-225.85786 234.52376 -2187.0 
-238.17735 234.52376 -2187.0 
-252.10039 236.02505 -2201.0 
-266.1813 237.52632 -2215.0 
-278.65854 237.52632 -2215.0 
-293.1073 239.13486 -2230.0 
-305.669 239.13486 -2230.0 
-534.31165 386.26178 -3602.0 
-554.60187 386.26178 -3602.0 
-574.89215 386.26178 -3602.0 
-595.18243 386.26178 -3602.0 
-615.47266 386.26178 -3602.0 
-642.4703 390.33673 -3640.0 
-662.9746 390.33673 -3640.0 
-683.47894 390.33673 -3640.0 
-703.9832 390.33673 -3640.0 
-724.4876 390.33673 -3640.0 
-752.9742 394.51892 -3679.0 
-773.69824 394.51892 -3679.0 
-794.4222 394.51892 -3679.0 
-815.1462 394.51892 -3679.0 
-835.87024 394.51892 -3679.0 
-856.5945 394.51892 -3679.0 
-886.61865 398.70108 -3718.0 
-917.57043 403.09775 -3759.0 
-938.74506 403.09775 -3759.0 
-959.91974 403.09775 -3759.0 
-991.7956 407.49442 -3800.0 
-2890.44 1031.7114 -9621.0 
-2944.6355 1031.7114 -9621.0 
-2917.4783 1003.72296 -9360.0 
-1526.659 481.7013 -4492.0 
-1551.9629 481.7013 -4492.0 
-1577.2667 481.7013 -4492.0 
-1581.8782 475.48163 -4434.0 
-1586.5612 469.47644 -4378.0 
-1611.2227 469.47644 -4378.0 
-1615.333 463.5785 -4323.0 
-1639.6848 463.5785 -4323.0 
-1643.6354 457.89502 -4270.0 
-1667.6886 457.89502 -4270.0 
-1691.7416 457.89502 -4270.0 
-1715.7952 457.89502 -4270.0 
-1739.8481 457.89502 -4270.0 
-1763.9014 457.89502 -4270.0 
-1766.1809 452.31876 -4218.0 
-1768.2988 446.84976 -4167.0 
-1813.7015 452.31876 -4218.0 
-1837.4618 452.31876 -4218.0 
-1816.655 441.488 -4117.0 
-1839.8463 441.488 -4117.0 
-1863.0377 441.488 -4117.0 
-1909.137 446.84976 -4167.0 
-1909.4205 441.488 -4117.0 
-2000.8 431.19342 -4021.0 
-2000.3025 426.2606 -3975.0 
-1999.7954 421.435 -3930.0 
-2021.9336 421.435 -3930.0 
-2044.0714 421.435 -3930.0 
-2066.2095 421.435 -3930.0 
-2064.435 416.6094 -3885.0 
-2086.3193 416.6094 -3885.0 
-2108.204 416.6094 -3885.0 
-2106.5122 411.9983 -3842.0 
-2128.1543 411.9983 -3842.0 
-2149.7964 411.9983 -3842.0 
-2171.4387 411.9983 -3842.0 
-2193.081 411.9983 -3842.0 
-2214.7234 411.9983 -3842.0 
-2211.918 407.49442 -3800.0 
-2233.3237 407.49442 -3800.0 
-2254.7292 407.49442 -3800.0 
-2251.577 403.09775 -3759.0 
4247.955 817.9124 -8051.0 
4303.348 837.51953 -8244.0 
4256.9097 837.51953 -8244.0 
2334.5012 474.83826 -4674.0 
2339.7773 481.34012 -4738.0 
2378.5066 494.9533 -4872.0 
2419.1042 509.27774 -5013.0 
2426.1587 516.7955 -5087.0 
2470.555 532.5421 -5242.0 
2478.2795 540.66943 -5322.0 
2526.0461 557.8384 -5491.0 
2577.3616 576.2265 -5672.0 
3361.7024 857.93945 -8445.0 
3397.3276 879.4768 -8657.0 
3348.5623 879.4768 -8657.0 
3142.373 837.51953 -8244.0 
3023.4553 817.9124 -8051.0 
2978.1035 817.9124 -8051.0 
2932.7515 817.9124 -8051.0 
2887.4001 817.9124 -8051.0 
2777.448 799.32117 -7868.0 
2672.337 781.54266 -7693.0 
2365.5208 703.2157 -6922.0 
2280.8179 689.3993 -6786.0 
2287.5364 703.2157 -6922.0 
2204.366 689.3993 -6786.0 
2166.14 689.3993 -6786.0 
2127.914 689.3993 -6786.0 
2552.991 857.93945 -8445.0 
2634.1763 902.03015 -8879.0 
2584.1606 902.03015 -8879.0 
2534.1448 902.03015 -8879.0 
2484.1284 902.03015 -8879.0 
2498.262 925.8025 -9113.0 
2384.0964 902.03015 -8879.0 
2275.722 879.4768 -8657.0 
2172.421 857.93945 -8445.0 
2178.191 879.4768 -8657.0 
2129.4255 879.4768 -8657.0 
2134.0164 902.03015 -8879.0 
2084.0005 902.03015 -8879.0 
2087.5889 925.8025 -9113.0 
2036.2545 925.8025 -9113.0 
1984.9205 925.8025 -9113.0 
660.9372 316.4572 -3115.0 
643.39026 316.4572 -3115.0 
631.4688 319.3018 -3143.0 
613.76404 319.3018 -3143.0 
596.0594 319.3018 -3143.0 
583.691 322.24792 -3172.0 
565.82294 322.24792 -3172.0 
547.95483 322.24792 -3172.0 
530.08673 322.24792 -3172.0 
516.9016 325.1941 -3201.0 
503.54553 328.24185 -3231.0 
485.34515 328.24185 -3231.0 
467.14478 328.24185 -3231.0 
448.94424 328.24185 -3231.0 
430.74384 328.24185 -3231.0 
416.5015 331.39117 -3262.0 
398.12646 331.39117 -3262.0 
376.14255 328.24185 -3231.0 
357.94202 328.24185 -3231.0 
339.74164 328.24185 -3231.0 
324.62616 331.39117 -3262.0 
309.16156 334.5405 -3293.0 
293.34772 337.68985 -3324.0 
274.62332 337.68985 -3324.0 
255.89905 337.68985 -3324.0 
237.17465 337.68985 -3324.0 
218.45038 337.68985 -3324.0 
199.72612 337.68985 -3324.0 
124.64288 232.54271 -2289.0 
110.284225 229.49498 -2259.0 
96.91127 227.97112 -2244.0 
83.74495 226.54884 -2230.0 
71.183235 226.54884 -2230.0 
58.227135 225.02496 -2215.0 
45.460754 223.60269 -2201.0 
32.656742 220.85973 -2174.0 
20.156996 218.11674 -2147.0 
8.010253 216.69447 -2133.0 
-4.0050507 216.69447 -2133.0 
-16.020506 216.69447 -2133.0 
-28.219824 218.11674 -2147.0 
-40.55809 219.43744 -2160.0 
-52.725487 219.43744 -2160.0 
-64.50233 218.11674 -2147.0 
-77.06043 219.43744 -2160.0 
-89.22783 219.43744 -2160.0 
-101.395226 219.43744 -2160.0 
-113.56262 219.43744 -2160.0 
-126.54493 220.85973 -2174.0 
-138.79135 220.85973 -2174.0 
-151.03761 220.85973 -2174.0 
-163.28387 220.85973 -2174.0 
-175.53012 220.85973 -2174.0 
-187.77638 220.85973 -2174.0 
-200.0228 220.85973 -2174.0 
-213.53838 222.1804 -2187.0 
-225.85786 222.1804 -2187.0 
-238.17735 222.1804 -2187.0 
-250.49684 222.1804 -2187.0 
-264.4989 223.60269 -2201.0 
-278.65854 225.02496 -2215.0 
-291.13574 225.02496 -2215.0 
-303.61295 225.02496 -2215.0 
-528.8232 362.17334 -3565.0 
-554.60187 365.93225 -3602.0 
-574.89215 365.93225 -3602.0 
-595.18243 365.93225 -3602.0 
-615.47266 365.93225 -3602.0 
-635.7632 365.93225 -3602.0 
-662.9746 369.7927 -3640.0 
-683.47894 369.7927 -3640.0 
-711.5259 373.7548 -3679.0 
-724.4876 369.7927 -3640.0 
-752.9742 373.7548 -3679.0 
-773.69824 373.7548 -3679.0 
-802.8436 377.71686 -3718.0 
-815.1462 373.7548 -3679.0 
-835.87024 373.7548 -3679.0 
-856.5945 373.7548 -3679.0 
-886.61865 377.71686 -3718.0 
-907.5624 377.71686 -3718.0 
-938.74506 381.88208 -3759.0 
-959.91974 381.88208 -3759.0 
-991.7956 386.04733 -3800.0 
-2759.302 950.89557 -9360.0 
-2812.0276 950.89557 -9360.0 
-2944.6355 977.41095 -9621.0 
-2917.4783 950.89557 -9360.0 
-1551.9629 456.3486 -4492.0 
-1556.9012 450.4563 -4434.0 
-1581.8782 450.4563 -4434.0 
-1586.5612 444.76718 -4378.0 
-1590.9812 439.17966 -4323.0 
-1615.333 439.17966 -4323.0 
-1639.6848 439.17966 -4323.0 
-1664.0365 439.17966 -4323.0 
-1667.6886 433.79532 -4270.0 
-1691.7416 433.79532 -4270.0 
-1715.7952 433.79532 -4270.0 
-1739.8481 433.79532 -4270.0 
-1742.4207 428.51254 -4218.0 
-1766.1809 428.51254 -4218.0 
-1789.9412 428.51254 -4218.0 
-1836.0612 433.79532 -4270.0 
-1837.4618 428.51254 -4218.0 
-1838.7179 423.3314 -4167.0 
-1839.8463 418.2518 -4117.0 
-1863.0377 418.2518 -4117.0 
-1909.137 423.3314 -4167.0 
-1932.61 423.3314 -4167.0 
-1977.6576 399.25424 -3930.0 
-1976.897 394.68262 -3885.0 
-2021.9336 399.25424 -3930.0 
-2091.4023 408.49905 -4021.0 
-2114.053 408.49905 -4021.0 
-2088.3474 399.25424 -3930.0 
-2110.485 399.25424 -3930.0 
-2132.6233 399.25424 -3930.0 
-2130.0884 394.68262 -3885.0 
-2151.973 394.68262 -3885.0 
-2173.8574 394.68262 -3885.0 
-2195.7417 394.68262 -3885.0 
-2217.6265 394.68262 -3885.0 
-2214.7234 390.31418 -3842.0 
-2211.918 386.04733 -3800.0 
-2233.3237 386.04733 -3800.0 
-2254.7292 386.04733 -3800.0 
-2276.1353 386.04733 -3800.0 
1998.8999 328.428 -3423.0 
1999.8593 331.78616 -3458.0 
4247.955 772.47266 -8051.0 
4408.27 810.27594 -8445.0 
4256.9097 790.99054 -8244.0 
2308.172 448.45825 -4674.0 
2378.5066 467.45584 -4872.0 
2384.842 474.17215 -4942.0 
2426.1587 488.08453 -5087.0 
2433.322 495.3765 -5163.0 
2441.0261 502.9564 -5242.0 
2486.943 518.6918 -5406.0 
2577.3616 544.21375 -5672.0 
3361.7024 810.27594 -8445.0 
3314.131 810.27594 -8445.0 
3348.5623 830.6168 -8657.0 
3142.373 790.99054 -8244.0 
3023.4553 772.47266 -8051.0 
2978.1035 772.47266 -8051.0 
2932.7515 772.47266 -8051.0 
2887.4001 772.47266 -8051.0 
2656.3672 722.00433 -7525.0 
2268.3425 626.5367 -6530.0 
2231.5588 626.5367 -6530.0 
2194.7747 626.5367 -6530.0 
2199.3 638.5301 -6655.0 
2204.366 651.0992 -6786.0 
2166.14 651.0992 -6786.0 
2127.914 651.0992 -6786.0 
2617.0803 830.6168 -8657.0 
2568.3147 830.6168 -8657.0 
2584.1606 851.9171 -8879.0 
2600.9304 874.36884 -9113.0 
2549.5962 874.36884 -9113.0 
2498.262 874.36884 -9113.0 
2324.4873 830.6168 -8657.0 
2219.9922 810.27594 -8445.0 
2172.421 810.27594 -8445.0 
2178.191 830.6168 -8657.0 
2184.0327 851.9171 -8879.0 
2134.0164 851.9171 -8879.0 
2084.0005 851.9171 -8879.0 
2033.9845 851.9171 -8879.0 
2036.2545 874.36884 -9113.0 
1984.9205 874.36884 -9113.0 
666.87823 301.56274 -3143.0 
649.1735 301.56274 -3143.0 
631.4688 301.56274 -3143.0 
619.4271 304.3452 -3172.0 
601.55914 304.3452 -3172.0 
583.691 304.3452 -3172.0 
565.82294 304.3452 -3172.0 
547.95483 304.3452 -3172.0 
530.08673 304.3452 -3172.0 
521.74603 310.0061 -3231.0 
503.54553 310.0061 -3231.0 
485.34515 310.0061 -3231.0 
467.14478 310.0061 -3231.0 
448.94424 310.0061 -3231.0 
430.74384 310.0061 -3231.0 
412.5433 310.0061 -3231.0 
398.12646 312.98047 -3262.0 
379.75146 312.98047 -3262.0 
357.94202 310.0061 -3231.0 
339.74164 310.0061 -3231.0 
324.62616 312.98047 -3262.0 
309.16156 315.95486 -3293.0 
293.34772 318.92923 -3324.0 
274.62332 318.92923 -3324.0 
255.89905 318.92923 -3324.0 
237.17465 318.92923 -3324.0 
218.45038 318.92923 -3324.0 
199.72612 318.92923 -3324.0 
123.82609 218.18443 -2274.0 
110.284225 216.74522 -2259.0 
96.91127 215.306 -2244.0 
83.74495 213.96274 -2230.0 
71.183235 213.96274 -2230.0 
58.227135 212.52353 -2215.0 
45.17159 209.837 -2187.0 
32.251163 205.99911 -2147.0 
20.025557 204.65584 -2133.0 
8.010253 204.65584 -2133.0 
-3.9806406 203.40852 -2120.0 
-15.922867 203.40852 -2120.0 
-28.219824 205.99911 -2147.0 
-40.31399 205.99911 -2147.0 
-52.408157 205.99911 -2147.0 
-64.50233 205.99911 -2147.0 
-77.06043 207.24641 -2160.0 
-89.22783 207.24641 -2160.0 
-101.395226 207.24641 -2160.0 
-113.56262 207.24641 -2160.0 
-126.54493 208.58969 -2174.0 
-138.79135 208.58969 -2174.0 
-151.03761 208.58969 -2174.0 
-163.28387 208.58969 -2174.0 
-175.53012 208.58969 -2174.0 
-187.77638 208.58969 -2174.0 
-200.0228 208.58969 -2174.0 
-212.26906 208.58969 -2174.0 
-224.51532 208.58969 -2174.0 
-238.17735 209.837 -2187.0 
-250.49684 209.837 -2187.0 
-264.4989 211.18027 -2201.0 
-278.65854 212.52353 -2215.0 
-291.13574 212.52353 -2215.0 
-534.31165 345.6026 -3602.0 
-554.60187 345.6026 -3602.0 
-574.89215 345.6026 -3602.0 
-595.18243 345.6026 -3602.0 
-615.47266 345.6026 -3602.0 
-635.7632 345.6026 -3602.0 
-662.9746 349.24863 -3640.0 
-683.47894 349.24863 -3640.0 
-703.9832 349.24863 -3640.0 
-724.4876 349.24863 -3640.0 
-744.9921 349.24863 -3640.0 
-773.69824 352.99054 -3679.0 
-802.8436 356.73248 -3718.0 
-815.1462 352.99054 -3679.0 
-835.87024 352.99054 -3679.0 
-856.5945 352.99054 -3679.0 
-886.61865 356.73248 -3718.0 
-907.5624 356.73248 -3718.0 
-938.74506 360.66635 -3759.0 
-959.91974 360.66635 -3759.0 
-981.09467 360.66635 -3759.0 
-2686.4873 874.36884 -9113.0 
-2890.44 923.1101 -9621.0 
-2944.6355 923.1101 -9621.0 
-2917.4783 898.0678 -9360.0 
-1531.9243 425.43085 -4434.0 
-1577.2667 430.9958 -4492.0 
-1602.5703 430.9958 -4492.0 
-1586.5612 420.0578 -4378.0 
-1611.2227 420.0578 -4378.0 
-1615.333 414.7807 -4323.0 
-1639.6848 414.7807 -4323.0 
-1664.0365 414.7807 -4323.0 
-1667.6886 409.69547 -4270.0 
-1691.7416 409.69547 -4270.0 
-1694.9001 404.7062 -4218.0 
-1739.8481 409.69547 -4270.0 
-1763.9014 409.69547 -4270.0 
-1766.1809 404.7062 -4218.0 
-1789.9412 404.7062 -4218.0 
-1813.7015 404.7062 -4218.0 
-1815.245 399.8129 -4167.0 
-1838.7179 399.8129 -4167.0 
-1862.1908 399.8129 -4167.0 
-1885.6638 399.8129 -4167.0 
-1886.2291 395.01553 -4117.0 
-1909.4205 395.01553 -4117.0 
-2068.752 385.80457 -4021.0 
-2115.848 390.3141 -4068.0 
-2138.7632 390.3141 -4068.0 
-2136.7034 385.80457 -4021.0 
-2134.6511 381.39096 -3975.0 
-2157.0427 381.39096 -3975.0 
-2154.7612 377.07333 -3930.0 
-2176.8992 377.07333 -3930.0 
-2173.8574 372.7557 -3885.0 
-2195.7417 372.7557 -3885.0 
-2193.081 368.63 -3842.0 
-2214.7234 368.63 -3842.0 
-2236.3655 368.63 -3842.0 
-2258.0078 368.63 -3842.0 
-2279.65 368.63 -3842.0 
-2276.1353 364.6002 -3800.0 
1998.8999 309.10873 -3423.0 
2020.1008 315.43 -3493.0 
2020.4689 318.5906 -3528.0 
4408.27 762.6127 -8445.0 
4360.6987 762.6127 -8445.0 
2339.7773 427.85776 -4738.0 
2378.5066 439.95847 -4872.0 
2419.1042 452.69122 -5013.0 
2426.1587 459.3737 -5087.0 
2433.322 466.23676 -5163.0 
2404.2385 466.23676 -5163.0 
2411.4976 473.3707 -5242.0 
2456.491 488.1805 -5406.0 
2504.124 503.89328 -5580.0 
3132.016 710.50757 -7868.0 
3235.2512 744.46173 -8244.0 
3266.5598 762.6127 -8445.0 
3142.373 744.46173 -8244.0 
3095.9343 744.46173 -8244.0 
2978.1035 727.03314 -8051.0 
3003.0562 744.46173 -8244.0 
2887.4001 727.03314 -8051.0 
2305.1265 589.6816 -6530.0 
2268.3425 589.6816 -6530.0 
2231.5588 589.6816 -6530.0 
2194.7747 589.6816 -6530.0 
2199.3 600.9695 -6655.0 
2161.8118 600.9695 -6655.0 
2124.324 600.9695 -6655.0 
2170.5603 625.0805 -6922.0 
2538.666 744.46173 -8244.0 
2552.991 762.6127 -8445.0 
2568.3147 781.757 -8657.0 
2584.1606 801.8044 -8879.0 
2534.1448 801.8044 -8879.0 
2549.5962 822.93536 -9113.0 
2498.262 822.93536 -9113.0 
2324.4873 781.757 -8657.0 
2275.722 781.757 -8657.0 
2226.9565 781.757 -8657.0 
2234.0483 801.8044 -8879.0 
2241.5913 822.93536 -9113.0 
2134.0164 801.8044 -8879.0 
2084.0005 801.8044 -8879.0 
2033.9845 801.8044 -8879.0 
1983.9684 801.8044 -8879.0 
1984.9205 822.93536 -9113.0 
1883.9364 801.8044 -8879.0 
649.1735 283.82376 -3143.0 
631.4688 283.82376 -3143.0 
619.4271 286.44257 -3172.0 
601.55914 286.44257 -3172.0 
583.691 286.44257 -3172.0 
565.82294 286.44257 -3172.0 
552.96454 289.06137 -3201.0 
534.93304 289.06137 -3201.0 
521.74603 291.77048 -3231.0 
503.54553 291.77048 -3231.0 
485.34515 291.77048 -3231.0 
467.14478 291.77048 -3231.0 
448.94424 291.77048 -3231.0 
430.74384 291.77048 -3231.0 
412.5433 291.77048 -3231.0 
398.12646 294.5699 -3262.0 
379.75146 294.5699 -3262.0 
361.3763 294.5699 -3262.0 
343.00128 294.5699 -3262.0 
324.62616 294.5699 -3262.0 
309.16156 297.3693 -3293.0 
290.6119 297.3693 -3293.0 
272.06216 297.3693 -3293.0 
255.89905 300.1687 -3324.0 
237.17465 300.1687 -3324.0 
220.61911 303.1487 -3357.0 
201.70894 303.1487 -3357.0 
184.59563 306.12872 -3390.0 
109.551926 202.64096 -2244.0 
96.91127 202.64096 -2244.0 
83.74495 201.37671 -2230.0 
71.183235 201.37671 -2230.0 
57.859104 198.75792 -2201.0 
44.05624 192.61728 -2133.0 
32.04086 192.61728 -2133.0 
20.025557 192.61728 -2133.0 
8.010253 192.61728 -2133.0 
-3.9806406 191.44333 -2120.0 
-15.922867 191.44333 -2120.0 
-28.219824 193.88152 -2147.0 
-40.31399 193.88152 -2147.0 
-52.725487 195.05547 -2160.0 
-64.89288 195.05547 -2160.0 
-77.06043 195.05547 -2160.0 
-89.22783 195.05547 -2160.0 
-101.395226 195.05547 -2160.0 
-113.56262 195.05547 -2160.0 
-126.54493 196.31972 -2174.0 
-137.89757 195.05547 -2160.0 
-150.06496 195.05547 -2160.0 
-163.28387 196.31972 -2174.0 
-175.53012 196.31972 -2174.0 
-187.77638 196.31972 -2174.0 
-200.0228 196.31972 -2174.0 
-212.26906 196.31972 -2174.0 
-225.85786 197.49365 -2187.0 
-238.17735 197.49365 -2187.0 
-250.49684 197.49365 -2187.0 
-264.4989 198.75792 -2201.0 
-276.89725 198.75792 -2201.0 
-291.13574 200.02216 -2215.0 
-514.0211 325.27307 -3602.0 
-534.31165 325.27307 -3602.0 
-554.60187 325.27307 -3602.0 
-574.89215 325.27307 -3602.0 
-595.18243 325.27307 -3602.0 
-615.47266 325.27307 -3602.0 
-635.7632 325.27307 -3602.0 
-662.9746 328.7046 -3640.0 
-683.47894 328.7046 -3640.0 
-703.9832 328.7046 -3640.0 
-724.4876 328.7046 -3640.0 
-752.9742 332.2264 -3679.0 
-773.69824 332.2264 -3679.0 
-811.69696 339.45068 -3759.0 
-815.1462 332.2264 -3679.0 
-835.87024 332.2264 -3679.0 
-856.5945 332.2264 -3679.0 
-886.61865 335.74826 -3718.0 
-907.5624 335.74826 -3718.0 
-938.74506 339.45068 -3759.0 
-959.91974 339.45068 -3759.0 
-981.09467 339.45068 -3759.0 
-2890.44 868.8095 -9621.0 
-2944.6355 868.8095 -9621.0 
-2917.4783 845.24036 -9360.0 
-1551.9629 405.64313 -4492.0 
-1577.2667 405.64313 -4492.0 
-1602.5703 405.64313 -4492.0 
-1586.5612 395.34854 -4378.0 
-1590.9812 390.38187 -4323.0 
-1615.333 390.38187 -4323.0 
