ply
format ascii 1.0
comment this is my Proccessing file
element vertex 1672
property float x
property float y
property float z
end_header
-2726.4648 224.08798 -5672.0 
-2758.416 224.08798 -5672.0 
-2790.3667 224.08798 -5672.0 
-2822.3174 224.08798 -5672.0 
-2854.268 224.08798 -5672.0 
-2839.404 220.45328 -5580.0 
-2870.8372 220.45328 -5580.0 
-2902.2693 220.45328 -5580.0 
-2886.91 216.93707 -5491.0 
-2917.841 216.93707 -5491.0 
-3045.9724 224.08798 -5672.0 
-3129.4756 227.84122 -5767.0 
-3109.8743 224.08798 -5672.0 
-3090.8645 220.45328 -5580.0 
-3122.2969 220.45328 -5580.0 
-3103.428 216.93707 -5491.0 
-3185.1624 220.45328 -5580.0 
-3216.5945 220.45328 -5580.0 
-3248.027 220.45328 -5580.0 
-3333.5293 224.08798 -5672.0 
-3365.48 224.08798 -5672.0 
-3512.436 231.67346 -5864.0 
1473.3347 85.438354 -2523.0 
1448.7124 84.828804 -2505.0 
1444.9102 85.438354 -2523.0 
1441.472 86.08176 -2542.0 
1459.1543 88.012 -2599.0 
1477.8617 90.04383 -2659.0 
1474.4368 90.75497 -2680.0 
1470.7753 91.4661 -2701.0 
1478.1941 92.88838 -2743.0 
1486.7394 94.412254 -2788.0 
1495.3054 95.96999 -2834.0 
1491.3473 96.748856 -2857.0 
1487.6464 97.56159 -2881.0 
1496.4434 99.22092 -2930.0 
1505.1934 100.91411 -2980.0 
1514.8785 102.708885 -3033.0 
1524.4602 104.53753 -3087.0 
1520.7406 105.48572 -3115.0 
1530.7 107.415955 -3172.0 
1540.9708 109.41392 -3231.0 
1551.9911 111.51347 -3293.0 
1578.611 114.798256 -3390.0 
1574.696 115.91576 -3423.0 
1587.2222 118.286224 -3493.0 
1583.2526 119.47146 -3528.0 
1596.1713 121.97739 -3602.0 
1609.5684 124.58489 -3679.0 
1623.3939 127.294 -3759.0 
1655.9248 131.56084 -3885.0 
1652.9675 133.0847 -3930.0 
1668.5918 136.1663 -4021.0 
1627.1117 134.60857 -3975.0 
3314.131 285.97974 -8445.0 
3266.5598 285.97974 -8445.0 
3218.9885 285.97974 -8445.0 
1828.0697 167.35486 -4942.0 
1774.7318 164.98439 -4872.0 
1772.3923 167.35486 -4942.0 
1769.6171 169.7592 -5013.0 
1793.4844 174.83876 -5163.0 
1847.4436 183.06766 -5406.0 
1874.4448 192.07544 -5672.0 
1873.3536 195.2925 -5767.0 
1861.9073 225.36354 -6655.0 
1976.8427 244.1918 -7211.0 
2112.6333 266.44034 -7868.0 
2022.309 260.51416 -7693.0 
2023.9916 266.44034 -7868.0 
1979.6703 266.44034 -7868.0 
1980.3633 272.6374 -8051.0 
1981.3978 279.17313 -8244.0 
1982.1359 285.97974 -8445.0 
1934.5647 285.97974 -8445.0 
1886.9933 285.97974 -8445.0 
1885.5983 293.15887 -8657.0 
1836.8326 293.15887 -8657.0 
1833.9204 300.6766 -8879.0 
1783.9045 300.6766 -8879.0 
1733.8883 300.6766 -8879.0 
1716.1987 325.80356 -9621.0 
790.00415 229.7997 -6786.0 
782.5758 239.21384 -7064.0 
292.4501 105.48572 -3115.0 
274.90314 105.48572 -3115.0 
259.6694 106.4339 -3143.0 
241.9647 106.4339 -3143.0 
224.2599 106.4339 -3143.0 
206.55522 106.4339 -3143.0 
188.85054 106.4339 -3143.0 
171.14574 106.4339 -3143.0 
154.85681 107.415955 -3172.0 
136.98866 107.415955 -3172.0 
120.20967 108.398 -3201.0 
53.275703 56.51867 -1669.0 
43.453476 55.976852 -1653.0 
33.83222 55.468895 -1638.0 
24.364874 54.92707 -1622.0 
15.162342 54.690025 -1615.0 
6.008629 54.18207 -1600.0 
-3.0042572 54.18207 -1600.0 
-11.904596 53.674114 -1585.0 
-20.832987 53.674114 -1585.0 
-29.761375 53.674114 -1585.0 
-38.689766 53.674114 -1585.0 
-47.407856 53.437065 -1578.0 
-56.29693 53.437065 -1578.0 
-65.18589 53.437065 -1578.0 
-74.074844 53.437065 -1578.0 
-82.963806 53.437065 -1578.0 
-91.445305 53.20002 -1571.0 
-100.294945 53.20002 -1571.0 
-106.22655 51.77774 -1529.0 
-113.78798 51.303646 -1515.0 
-121.83761 51.100464 -1509.0 
-129.73328 50.863415 -1502.0 
-138.83827 51.100464 -1509.0 
-147.9244 51.303646 -1515.0 
-156.45847 51.303646 -1515.0 
-165.75488 51.54069 -1522.0 
-175.13016 51.77774 -1529.0 
-184.58441 52.014786 -1536.0 
-193.99162 52.217968 -1542.0 
-203.59785 52.455013 -1549.0 
-212.32347 52.455013 -1549.0 
-223.04692 52.929108 -1563.0 
-234.07655 53.437065 -1578.0 
-244.0433 53.674114 -1585.0 
-254.08893 53.91116 -1592.0 
-263.05673 53.91116 -1592.0 
-272.02457 53.91116 -1592.0 
-280.99252 53.91116 -1592.0 
-289.96033 53.91116 -1592.0 
-298.92816 53.91116 -1592.0 
-307.896 53.91116 -1592.0 
-319.8493 54.419113 -1607.0 
-328.90176 54.419113 -1607.0 
-339.63647 54.690025 -1615.0 
-351.97287 55.197983 -1630.0 
-364.47824 55.705936 -1645.0 
-373.74463 55.705936 -1645.0 
-386.73645 56.24776 -1661.0 
-399.90842 56.78958 -1677.0 
-886.2844 112.56325 -3324.0 
-905.0087 112.56325 -3324.0 
-932.9036 113.680756 -3357.0 
-951.8138 113.680756 -3357.0 
-980.2666 114.798256 -3390.0 
-999.3627 114.798256 -3390.0 
-1008.5445 113.680756 -3357.0 
-1037.5547 114.798256 -3390.0 
-1056.6509 114.798256 -3390.0 
-1075.7471 114.798256 -3390.0 
-1094.8431 114.798256 -3390.0 
-1113.9392 114.798256 -3390.0 
-1144.0648 115.91576 -3423.0 
-1163.3467 115.91576 -3423.0 
-1182.629 115.91576 -3423.0 
-1201.9109 115.91576 -3423.0 
-1221.1929 115.91576 -3423.0 
-1240.4749 115.91576 -3423.0 
-1259.7567 115.91576 -3423.0 
-1292.117 117.10099 -3458.0 
-1324.8713 118.286224 -3493.0 
-1344.5476 118.286224 -3493.0 
-1350.5543 117.10099 -3458.0 
-2642.187 195.2925 -5767.0 
-2674.6729 195.2925 -5767.0 
-2707.1587 195.2925 -5767.0 
-2739.6445 195.2925 -5767.0 
-2726.4648 192.07544 -5672.0 
-2758.416 192.07544 -5672.0 
-2790.3667 192.07544 -5672.0 
-2822.3174 192.07544 -5672.0 
-2854.268 192.07544 -5672.0 
-2839.404 188.95996 -5580.0 
-2870.8372 188.95996 -5580.0 
-2902.2693 188.95996 -5580.0 
-2933.702 188.95996 -5580.0 
-2917.841 185.94608 -5491.0 
-3045.9724 192.07544 -5672.0 
-3129.4756 195.2925 -5767.0 
-3059.432 188.95996 -5580.0 
-3041.5657 185.94608 -5491.0 
-3072.4968 185.94608 -5491.0 
-3153.7292 188.95996 -5580.0 
-3185.1624 188.95996 -5580.0 
-3216.5945 188.95996 -5580.0 
-3248.027 188.95996 -5580.0 
-3333.5293 192.07544 -5672.0 
-3365.48 192.07544 -5672.0 
-3397.4314 192.07544 -5672.0 
1473.3347 71.19864 -2523.0 
1459.1223 71.19864 -2523.0 
1455.7914 71.73481 -2542.0 
1451.6792 72.24277 -2560.0 
1459.1543 73.343346 -2599.0 
1489.5334 75.62915 -2680.0 
1485.9901 76.22176 -2701.0 
1482.2104 76.814384 -2722.0 
1514.3002 79.29773 -2810.0 
1498.4712 79.29773 -2810.0 
1495.3054 79.975006 -2834.0 
1491.3473 80.62406 -2857.0 
1487.6464 81.30134 -2881.0 
1496.4434 82.684105 -2930.0 
1505.1934 84.0951 -2980.0 
1514.8785 85.59075 -3033.0 
1524.4602 87.114624 -3087.0 
1534.4102 88.69493 -3143.0 
1530.7 89.513306 -3172.0 
1555.7557 92.05309 -3262.0 
1551.9911 92.92791 -3293.0 
1563.2439 94.73398 -3357.0 
1574.696 96.59649 -3423.0 
1587.2222 98.57188 -3493.0 
1583.2526 99.55957 -3528.0 
1596.1713 101.647835 -3602.0 
1609.5684 103.82076 -3679.0 
1623.3939 106.07835 -3759.0 
1637.5968 108.42059 -3842.0 
1652.9675 110.90394 -3930.0 
1668.5918 113.47195 -4021.0 
3361.7024 238.31648 -8445.0 
3314.131 238.31648 -8445.0 
3266.5598 238.31648 -8445.0 
1802.1763 137.48701 -4872.0 
1774.7318 137.48701 -4872.0 
1747.2876 137.48701 -4872.0 
1744.5536 139.46242 -4942.0 
1793.4844 145.69899 -5163.0 
1791.3984 147.92836 -5242.0 
1788.7582 150.18594 -5322.0 
1874.4448 160.06288 -5672.0 
1842.4938 160.06288 -5672.0 
1936.5438 199.3449 -7064.0 
2068.3125 222.03365 -7868.0 
2023.9916 222.03365 -7868.0 
2074.276 232.6443 -8244.0 
2027.837 232.6443 -8244.0 
1981.3978 232.6443 -8244.0 
1982.1359 238.31648 -8445.0 
1934.5647 238.31648 -8445.0 
1886.9933 238.31648 -8445.0 
1885.5983 244.29909 -8657.0 
1836.8326 244.29909 -8657.0 
1788.0673 244.29909 -8657.0 
1783.9045 250.56389 -8879.0 
883.82074 195.33768 -6922.0 
844.8288 195.33768 -6922.0 
790.00415 191.49979 -6786.0 
782.5758 199.3449 -7064.0 
742.78394 199.3449 -7064.0 
292.4501 87.90478 -3115.0 
274.90314 87.90478 -3115.0 
259.6694 88.69493 -3143.0 
241.9647 88.69493 -3143.0 
224.2599 88.69493 -3143.0 
206.55522 88.69493 -3143.0 
188.85054 88.69493 -3143.0 
171.14574 88.69493 -3143.0 
153.44104 88.69493 -3143.0 
135.73624 88.69493 -3143.0 
119.12061 89.513306 -3172.0 
101.25256 89.513306 -3172.0 
43.059162 46.224087 -1638.0 
33.66698 45.998325 -1630.0 
24.364874 45.772568 -1622.0 
15.162342 45.575027 -1615.0 
6.0349164 45.34927 -1607.0 
-3.0174005 45.34927 -1607.0 
-12.017258 45.15173 -1600.0 
-20.924994 44.925972 -1592.0 
-29.761375 44.728436 -1585.0 
-38.689766 44.728436 -1585.0 
-47.618156 44.728436 -1585.0 
-56.54666 44.728436 -1585.0 
-65.47505 44.728436 -1585.0 
-74.40344 44.728436 -1585.0 
-82.963806 44.530895 -1578.0 
-91.445305 44.333355 -1571.0 
-100.294945 44.333355 -1571.0 
-107.616035 43.71252 -1549.0 
-114.83948 43.148125 -1529.0 
-122.32205 42.753044 -1515.0 
-130.33788 42.583725 -1509.0 
-139.39032 42.753044 -1515.0 
-148.60788 42.950584 -1522.0 
-157.18138 42.950584 -1522.0 
-165.75488 42.950584 -1522.0 
-175.13016 43.148125 -1529.0 
-183.74323 43.148125 -1529.0 
-193.23679 43.34566 -1536.0 
-203.59785 43.71252 -1549.0 
-212.32347 43.71252 -1549.0 
-222.04799 43.910057 -1556.0 
-231.85149 44.107597 -1563.0 
-241.88773 44.333355 -1571.0 
-252.9717 44.728436 -1585.0 
-261.9001 44.728436 -1585.0 
-272.02457 44.925972 -1592.0 
-280.99252 44.925972 -1592.0 
-289.96033 44.925972 -1592.0 
-298.92816 44.925972 -1592.0 
-307.896 44.925972 -1592.0 
-318.4561 45.15173 -1600.0 
-328.90176 45.34927 -1607.0 
-339.63647 45.575027 -1615.0 
-350.2454 45.772568 -1622.0 
-364.47824 46.421623 -1645.0 
-373.74463 46.421623 -1645.0 
-386.73645 46.873142 -1661.0 
-399.90842 47.324657 -1677.0 
-867.5602 93.80272 -3324.0 
-895.0833 94.73398 -3357.0 
-913.99347 94.73398 -3357.0 
-932.9036 94.73398 -3357.0 
-951.8138 94.73398 -3357.0 
-970.7242 94.73398 -3357.0 
-989.63434 94.73398 -3357.0 
-1008.5445 94.73398 -3357.0 
-1027.4547 94.73398 -3357.0 
-1056.6509 95.66523 -3390.0 
-1075.7471 95.66523 -3390.0 
-1094.8431 95.66523 -3390.0 
-1113.9392 95.66523 -3390.0 
-1144.0648 96.59649 -3423.0 
-1163.3467 96.59649 -3423.0 
-1182.629 96.59649 -3423.0 
-1201.9109 96.59649 -3423.0 
-1221.1929 96.59649 -3423.0 
-1240.4749 96.59649 -3423.0 
-1259.7567 96.59649 -3423.0 
-1292.117 97.58418 -3458.0 
-1324.8713 98.57188 -3493.0 
-1344.5476 98.57188 -3493.0 
-1364.2239 98.57188 -3493.0 
-2653.5955 165.4811 -5864.0 
-2598.662 160.06288 -5672.0 
-2630.6128 160.06288 -5672.0 
-2662.5635 160.06288 -5672.0 
-2694.5142 160.06288 -5672.0 
-2726.4648 160.06288 -5672.0 
-2758.416 160.06288 -5672.0 
-2790.3667 160.06288 -5672.0 
-2822.3174 160.06288 -5672.0 
-2854.268 160.06288 -5672.0 
-2839.404 157.46666 -5580.0 
-2870.8372 157.46666 -5580.0 
-2902.2693 157.46666 -5580.0 
-2933.702 157.46666 -5580.0 
-2965.1343 157.46666 -5580.0 
-3045.9724 160.06288 -5672.0 
-3182.1128 165.4811 -5864.0 
-3161.9614 162.74377 -5767.0 
-3041.5657 154.9551 -5491.0 
-3072.4968 154.9551 -5491.0 
-3103.428 154.9551 -5491.0 
-3134.3594 154.9551 -5491.0 
-3216.5945 157.46666 -5580.0 
-3248.027 157.46666 -5580.0 
-3279.4595 157.46666 -5580.0 
-3310.8918 157.46666 -5580.0 
-3289.0151 154.9551 -5491.0 
1431.2894 55.333458 -2451.0 
1427.8926 55.739826 -2469.0 
1444.9102 56.958923 -2523.0 
1430.6979 56.958923 -2523.0 
1459.1543 58.674686 -2599.0 
1501.2052 60.97743 -2701.0 
1497.5437 61.451523 -2722.0 
1505.6252 62.422283 -2765.0 
1490.0498 62.422283 -2765.0 
1486.7394 62.941532 -2788.0 
1495.3054 63.980015 -2834.0 
1479.3412 63.980015 -2834.0 
1487.6464 65.041084 -2881.0 
1496.4434 66.1473 -2930.0 
1518.3259 67.86307 -3006.0 
1541.8496 69.69171 -3087.0 
1524.4602 69.69171 -3087.0 
1534.4102 70.95596 -3143.0 
1530.7 71.610664 -3172.0 
1540.9708 72.942635 -3231.0 
1551.9911 74.34235 -3293.0 
1563.2439 75.7872 -3357.0 
1574.696 77.27721 -3423.0 
1571.3181 78.06736 -3458.0 
1583.2526 79.647675 -3528.0 
1596.1713 81.31828 -3602.0 
1609.5684 83.056625 -3679.0 
1623.3939 84.8627 -3759.0 
1637.5968 86.736496 -3842.0 
1671.8947 89.73909 -3975.0 
1668.5918 90.77758 -4021.0 
3361.7024 190.65323 -8445.0 
3314.131 190.65323 -8445.0 
3266.5598 190.65323 -8445.0 
1777.0228 108.45448 -4804.0 
1749.9614 108.45448 -4804.0 
1747.2876 109.98964 -4872.0 
1744.5536 111.569954 -4942.0 
1793.4844 116.55922 -5163.0 
1791.3984 118.34272 -5242.0 
1788.7582 120.14879 -5322.0 
1844.0411 125.97336 -5580.0 
1842.4938 128.05034 -5672.0 
1871.8309 132.3849 -5864.0 
2071.067 181.75835 -8051.0 
2124.8496 190.65323 -8445.0 
2027.837 186.11548 -8244.0 
1981.3978 186.11548 -8244.0 
1934.9589 186.11548 -8244.0 
1934.5647 190.65323 -8445.0 
1886.9933 190.65323 -8445.0 
1885.5983 195.43932 -8657.0 
1836.8326 195.43932 -8657.0 
1788.0673 195.43932 -8657.0 
1783.9045 200.45116 -8879.0 
942.90796 153.19986 -6786.0 
887.2177 150.24243 -6655.0 
866.4559 153.19986 -6786.0 
844.8288 156.27019 -6922.0 
805.8368 156.27019 -6922.0 
798.861 162.7946 -7211.0 
742.78394 159.47595 -7064.0 
304.4241 69.05959 -3059.0 
289.82135 69.69171 -3087.0 
274.90314 70.32384 -3115.0 
259.6694 70.95596 -3143.0 
241.9647 70.95596 -3143.0 
226.32912 71.610664 -3172.0 
208.46107 71.610664 -3172.0 
188.85054 70.95596 -3143.0 
171.14574 70.95596 -3143.0 
153.44104 70.95596 -3143.0 
135.73624 70.95596 -3143.0 
119.12061 71.610664 -3172.0 
52.764973 37.317913 -1653.0 
43.24317 37.13731 -1645.0 
33.66698 36.79867 -1630.0 
24.364874 36.618065 -1622.0 
15.0872345 36.279427 -1607.0 
6.0349164 36.279427 -1607.0 
-3.0174005 36.279427 -1607.0 
-12.069833 36.279427 -1607.0 
-21.030144 36.12139 -1600.0 
-29.892815 35.94079 -1592.0 
-38.689766 35.782753 -1585.0 
-47.618156 35.782753 -1585.0 
-56.54666 35.782753 -1585.0 
-65.47505 35.782753 -1585.0 
-74.40344 35.782753 -1585.0 
-82.963806 35.624725 -1578.0 
-91.445305 35.466694 -1571.0 
-100.294945 35.466694 -1571.0 
-108.58868 35.286087 -1563.0 
-115.365234 34.676537 -1536.0 
-122.88723 34.360477 -1522.0 
-131.46074 34.360477 -1522.0 
-140.03436 34.360477 -1522.0 
-149.29135 34.51851 -1529.0 
-157.90428 34.51851 -1529.0 
-166.51723 34.51851 -1529.0 
-175.13016 34.51851 -1529.0 
-183.74323 34.51851 -1529.0 
-193.23679 34.676537 -1536.0 
-203.59785 34.970024 -1549.0 
-213.28296 35.128056 -1556.0 
-222.04799 35.128056 -1556.0 
-231.85149 35.286087 -1563.0 
-242.96552 35.624725 -1578.0 
-251.85448 35.624725 -1578.0 
-261.9001 35.782753 -1585.0 
-272.02457 35.94079 -1592.0 
-280.99252 35.94079 -1592.0 
-289.96033 35.94079 -1592.0 
-298.92816 35.94079 -1592.0 
-307.896 35.94079 -1592.0 
-319.8493 36.279427 -1607.0 
-328.90176 36.279427 -1607.0 
-339.63647 36.460033 -1615.0 
-348.73386 36.460033 -1615.0 
-361.15472 36.79867 -1630.0 
-373.74463 37.13731 -1645.0 
-384.8738 37.317913 -1653.0 
-867.5602 75.0422 -3324.0 
-895.0833 75.7872 -3357.0 
-913.99347 75.7872 -3357.0 
-932.9036 75.7872 -3357.0 
-951.8138 75.7872 -3357.0 
-970.7242 75.7872 -3357.0 
-989.63434 75.7872 -3357.0 
-1008.5445 75.7872 -3357.0 
-1027.4547 75.7872 -3357.0 
-1056.6509 76.5322 -3390.0 
-1075.7471 76.5322 -3390.0 
-1094.8431 76.5322 -3390.0 
-1113.9392 76.5322 -3390.0 
-1133.0353 76.5322 -3390.0 
-1152.1313 76.5322 -3390.0 
-1182.629 77.27721 -3423.0 
-1201.9109 77.27721 -3423.0 
-1221.1929 77.27721 -3423.0 
-1240.4749 77.27721 -3423.0 
-1259.7567 77.27721 -3423.0 
-1292.117 78.06736 -3458.0 
-1324.8713 78.85751 -3493.0 
-1344.5476 78.85751 -3493.0 
-1377.8934 79.647675 -3528.0 
-2609.7007 130.19505 -5767.0 
-2598.662 128.05034 -5672.0 
-2630.6128 128.05034 -5672.0 
-2662.5635 128.05034 -5672.0 
-2694.5142 128.05034 -5672.0 
-2726.4648 128.05034 -5672.0 
-2713.6746 125.97336 -5580.0 
-2745.1067 125.97336 -5580.0 
-2776.5393 125.97336 -5580.0 
-2854.268 128.05034 -5672.0 
-2839.404 125.97336 -5580.0 
-2870.8372 125.97336 -5580.0 
-2902.2693 125.97336 -5580.0 
-2933.702 125.97336 -5580.0 
-2965.1343 125.97336 -5580.0 
-3096.9893 130.19505 -5767.0 
-3294.442 137.05812 -6071.0 
-3387.855 139.4963 -6179.0 
-2947.9536 120.14879 -5322.0 
-3024.935 122.045166 -5406.0 
-3103.428 123.96411 -5491.0 
-3134.3594 123.96411 -5491.0 
-3216.5945 125.97336 -5580.0 
1421.3619 41.21227 -2434.0 
1417.4827 41.50011 -2451.0 
1434.6016 42.414436 -2505.0 
1430.6979 42.719208 -2523.0 
1437.2585 43.345688 -2560.0 
1444.5139 44.006035 -2599.0 
1462.8833 45.02195 -2659.0 
1459.3402 45.377518 -2680.0 
1478.1941 46.44423 -2743.0 
1462.7424 46.44423 -2743.0 
1482.6423 47.578667 -2810.0 
1491.3473 48.374466 -2857.0 
1487.6464 48.78083 -2881.0 
1483.675 49.1872 -2905.0 
1613.2601 57.957928 -3423.0 
1593.978 57.957928 -3423.0 
1606.8984 59.14316 -3493.0 
1571.3181 58.550545 -3458.0 
1583.2526 59.735775 -3528.0 
1613.0103 61.632156 -3640.0 
1609.5684 62.292496 -3679.0 
1623.3939 63.64705 -3759.0 
1655.9248 65.78047 -3885.0 
1652.9675 66.542404 -3930.0 
1668.5918 68.08321 -4021.0 
1665.1799 68.879005 -4068.0 
3361.7024 142.98999 -8445.0 
3314.131 142.98999 -8445.0 
3266.5598 142.98999 -8445.0 
1752.609 80.22339 -4738.0 
1725.9194 80.22339 -4738.0 
1722.9001 81.3409 -4804.0 
1744.5536 83.6775 -4942.0 
1741.3785 84.87967 -5013.0 
1738.4287 86.13262 -5087.0 
1788.7582 90.111626 -5322.0 
1814.629 92.973114 -5491.0 
1842.4938 96.037796 -5672.0 
1840.8679 97.646324 -5767.0 
1838.7987 99.28873 -5864.0 
2023.9916 133.22028 -7868.0 
2074.276 139.58667 -8244.0 
2027.837 139.58667 -8244.0 
2029.7069 142.98999 -8445.0 
1982.1359 142.98999 -8445.0 
1934.5647 142.98999 -8445.0 
1886.9933 142.98999 -8445.0 
1885.5983 146.57954 -8657.0 
1836.8326 146.57954 -8657.0 
1788.0673 146.57954 -8657.0 
1739.3019 146.57954 -8657.0 
1061.1199 119.60702 -7064.0 
981.13416 114.89994 -6786.0 
942.90796 114.89994 -6786.0 
887.2177 112.68186 -6655.0 
866.4559 114.89994 -6786.0 
844.8288 117.20268 -6922.0 
822.3679 119.60702 -7064.0 
782.5758 119.60702 -7064.0 
292.4501 52.7429 -3115.0 
274.90314 52.7429 -3115.0 
259.6694 53.21699 -3143.0 
239.80911 52.7429 -3115.0 
224.2599 53.21699 -3143.0 
208.46107 53.70802 -3172.0 
188.85054 53.21699 -3143.0 
171.14574 53.21699 -3143.0 
153.44104 53.21699 -3143.0 
135.73624 53.21699 -3143.0 
119.12061 53.70802 -3172.0 
101.25256 53.70802 -3172.0 
43.453476 27.988447 -1653.0 
33.66698 27.599012 -1630.0 
24.364874 27.463558 -1622.0 
15.162342 27.345034 -1615.0 
6.0349164 27.20958 -1607.0 
-3.0174005 27.20958 -1607.0 
-12.017258 27.091057 -1600.0 
-21.030144 27.091057 -1600.0 
-29.892815 26.9556 -1592.0 
-38.860638 26.9556 -1592.0 
-47.618156 26.837078 -1585.0 
-56.54666 26.837078 -1585.0 
-65.47505 26.837078 -1585.0 
-74.40344 26.837078 -1585.0 
-82.963806 26.718554 -1578.0 
-91.445305 26.60003 -1571.0 
-100.294945 26.60003 -1571.0 
-108.58868 26.464575 -1563.0 
-115.81588 26.109005 -1542.0 
-123.452415 25.88889 -1529.0 
-132.06535 25.88889 -1529.0 
-140.6784 25.88889 -1529.0 
-149.29135 25.88889 -1529.0 
-157.90428 25.88889 -1529.0 
-166.51723 25.88889 -1529.0 
-175.13016 25.88889 -1529.0 
-183.74323 25.88889 -1529.0 
-193.23679 26.007414 -1536.0 
-203.59785 26.227528 -1549.0 
-213.28296 26.346052 -1556.0 
-224.18855 26.60003 -1571.0 
-234.07655 26.718554 -1578.0 
-244.0433 26.837078 -1585.0 
-251.85448 26.718554 -1578.0 
-261.9001 26.837078 -1585.0 
-272.02457 26.9556 -1592.0 
-280.99252 26.9556 -1592.0 
-288.68536 26.837078 -1585.0 
-297.61377 26.837078 -1585.0 
-307.896 26.9556 -1592.0 
-318.4561 27.091057 -1600.0 
-328.90176 27.20958 -1607.0 
-337.95404 27.20958 -1607.0 
-348.73386 27.345034 -1615.0 
-361.15472 27.599012 -1630.0 
-373.74463 27.852991 -1645.0 
-383.0111 27.852991 -1645.0 
-867.5602 56.28167 -3324.0 
-903.8822 57.399178 -3390.0 
-913.99347 56.840424 -3357.0 
-923.73303 56.28167 -3324.0 
-942.4573 56.28167 -3324.0 
-970.7242 56.840424 -3357.0 
-979.906 56.28167 -3324.0 
-1008.5445 56.840424 -3357.0 
-1027.4547 56.840424 -3357.0 
-1056.6509 57.399178 -3390.0 
-1075.7471 57.399178 -3390.0 
-1105.5009 57.957928 -3423.0 
-1124.7828 57.957928 -3423.0 
-1144.0648 57.957928 -3423.0 
-1152.1313 57.399178 -3390.0 
-1171.2275 57.399178 -3390.0 
-1201.9109 57.957928 -3423.0 
-1221.1929 57.957928 -3423.0 
-1240.4749 57.957928 -3423.0 
-1259.7567 57.957928 -3423.0 
-1292.117 58.550545 -3458.0 
-1311.5961 58.550545 -3458.0 
-1344.5476 59.14316 -3493.0 
-1364.2239 59.14316 -3493.0 
-1383.9001 59.14316 -3493.0 
-2666.146 101.01578 -5966.0 
-2609.7007 97.646324 -5767.0 
-2598.662 96.037796 -5672.0 
-2630.6128 96.037796 -5672.0 
-2662.5635 96.037796 -5672.0 
-2694.5142 96.037796 -5672.0 
-2682.2415 94.48006 -5580.0 
-2713.6746 94.48006 -5580.0 
-2701.3228 92.973114 -5491.0 
-2732.254 92.973114 -5491.0 
-2807.9717 94.48006 -5580.0 
-2839.404 94.48006 -5580.0 
-2870.8372 94.48006 -5580.0 
-2950.1206 96.037796 -5672.0 
-2933.702 94.48006 -5580.0 
-2965.1343 94.48006 -5580.0 
-3096.9893 97.646324 -5767.0 
-3294.442 102.793625 -6071.0 
-3387.855 104.62227 -6179.0 
-3237.6775 96.037796 -5672.0 
1421.3619 27.474802 -2434.0 
1417.4827 27.666697 -2451.0 
1424.2931 28.073063 -2487.0 
1430.6979 28.479427 -2523.0 
1437.2585 28.897081 -2560.0 
1444.5139 29.337309 -2599.0 
1451.88 29.788826 -2639.0 
1459.3402 30.251633 -2680.0 
1466.8772 30.725723 -2722.0 
1462.7424 30.96277 -2743.0 
1471.0345 31.470728 -2788.0 
1491.3473 32.249596 -2857.0 
1487.6464 32.520504 -2881.0 
1483.675 32.791412 -2905.0 
1492.5659 33.355812 -2955.0 
1555.7557 36.8212 -3262.0 
1597.7072 38.266056 -3390.0 
1593.978 38.638557 -3423.0 
1606.8984 39.42871 -3493.0 
1603.1261 39.823788 -3528.0 
1599.857 40.241444 -3565.0 
1630.2925 41.528267 -3679.0 
1609.5684 41.528267 -3679.0 
1623.3939 42.431297 -3759.0 
1655.9248 43.853577 -3885.0 
1671.8947 44.86949 -3975.0 
1649.5032 44.86949 -3975.0 
1665.1799 45.91927 -4068.0 
3314.131 95.3265 -8445.0 
3348.5623 97.719536 -8657.0 
1752.609 53.482178 -4738.0 
1749.9614 54.227177 -4804.0 
1722.9001 54.227177 -4804.0 
1744.5536 55.784912 -4942.0 
1741.3785 56.586353 -5013.0 
1738.4287 57.42166 -5087.0 
1735.3173 58.27954 -5163.0 
1844.0411 62.986603 -5580.0 
1842.4938 64.02509 -5672.0 
1840.8679 65.09745 -5767.0 
1838.7987 66.192375 -5864.0 
1837.1763 67.34374 -5966.0 
1835.3118 68.52898 -6071.0 
2023.9916 88.81337 -7868.0 
2025.7151 90.87906 -8051.0 
2027.837 93.05763 -8244.0 
2029.7069 95.3265 -8445.0 
1982.1359 95.3265 -8445.0 
1888.52 93.05763 -8244.0 
1798.9559 90.87906 -8051.0 
1839.422 95.3265 -8445.0 
1791.8506 95.3265 -8445.0 
1744.2795 95.3265 -8445.0 
1739.3019 97.719536 -8657.0 
1314.8556 88.81337 -7868.0 
1242.2756 86.83798 -7693.0 
1078.7812 78.134995 -6922.0 
1019.36 76.59984 -6786.0 
981.13416 76.59984 -6786.0 
924.7056 75.121124 -6655.0 
887.2177 75.121124 -6655.0 
866.4559 76.59984 -6786.0 
862.15985 79.737885 -7064.0 
292.4501 35.161877 -3115.0 
274.90314 35.161877 -3115.0 
257.35608 35.161877 -3115.0 
239.80911 35.161877 -3115.0 
222.26205 35.161877 -3115.0 
206.55522 35.47794 -3143.0 
188.85054 35.47794 -3143.0 
171.14574 35.47794 -3143.0 
153.44104 35.47794 -3143.0 
136.98866 35.80529 -3172.0 
119.12061 35.80529 -3172.0 
101.25256 35.80529 -3172.0 
81.88602 35.161877 -3115.0 
33.66698 18.399313 -1630.0 
24.364874 18.30901 -1622.0 
15.0872345 18.13969 -1607.0 
6.008629 18.060675 -1600.0 
-3.0174005 18.13969 -1607.0 
-12.017258 18.060675 -1600.0 
-20.924994 17.970371 -1592.0 
-29.761375 17.891356 -1585.0 
-38.689766 17.891356 -1585.0 
-47.618156 17.891356 -1585.0 
-56.54666 17.891356 -1585.0 
-65.47505 17.891356 -1585.0 
-74.074844 17.812342 -1578.0 
-82.59578 17.733326 -1571.0 
-91.85276 17.812342 -1578.0 
-100.294945 17.733326 -1571.0 
-109.14447 17.733326 -1571.0 
-116.34163 17.484991 -1549.0 
-124.01761 17.33825 -1536.0 
-132.66998 17.33825 -1536.0 
-141.32245 17.33825 -1536.0 
-149.29135 17.259233 -1529.0 
-157.90428 17.259233 -1529.0 
-167.27957 17.33825 -1536.0 
-175.13016 17.259233 -1529.0 
-183.74323 17.259233 -1529.0 
-193.23679 17.33825 -1536.0 
-202.6778 17.405977 -1542.0 
-213.28296 17.564007 -1556.0 
-224.18855 17.733326 -1571.0 
-235.11491 17.891356 -1585.0 
-242.96552 17.812342 -1578.0 
-251.85448 17.812342 -1578.0 
-261.9001 17.891356 -1585.0 
-270.8285 17.891356 -1585.0 
-279.757 17.891356 -1585.0 
-288.68536 17.891356 -1585.0 
-297.61377 17.891356 -1585.0 
-306.54214 17.891356 -1585.0 
-318.4561 18.060675 -1600.0 
-328.90176 18.13969 -1607.0 
-337.95404 18.13969 -1607.0 
-348.73386 18.229994 -1615.0 
-361.15472 18.399313 -1630.0 
-373.74463 18.568632 -1645.0 
-383.0111 18.568632 -1645.0 
-876.17316 37.893555 -3357.0 
-895.0833 37.893555 -3357.0 
-913.99347 37.893555 -3357.0 
-923.73303 37.521053 -3324.0 
-951.8138 37.893555 -3357.0 
-970.7242 37.893555 -3357.0 
-979.906 37.521053 -3324.0 
-1008.5445 37.893555 -3357.0 
-1027.4547 37.893555 -3357.0 
-1056.6509 38.266056 -3390.0 
-1075.7471 38.266056 -3390.0 
-1094.8431 38.266056 -3390.0 
-1124.7828 38.638557 -3423.0 
-1144.0648 38.638557 -3423.0 
-1163.3467 38.638557 -3423.0 
-1182.629 38.638557 -3423.0 
-1201.9109 38.638557 -3423.0 
-1221.1929 38.638557 -3423.0 
-1240.4749 38.638557 -3423.0 
-1272.6377 39.033634 -3458.0 
-1292.117 39.033634 -3458.0 
-1311.5961 39.033634 -3458.0 
-1344.5476 39.42871 -3493.0 
-1364.2239 39.42871 -3493.0 
-2544.729 65.09745 -5767.0 
-2577.2148 65.09745 -5767.0 
-2609.7007 65.09745 -5767.0 
-2598.662 64.02509 -5672.0 
-2630.6128 64.02509 -5672.0 
-2662.5635 64.02509 -5672.0 
-2650.809 62.986603 -5580.0 
-2682.2415 62.986603 -5580.0 
-2713.6746 62.986603 -5580.0 
-2745.1067 62.986603 -5580.0 
-2732.254 61.981983 -5491.0 
-2807.9717 62.986603 -5580.0 
-2839.404 62.986603 -5580.0 
-2870.8372 62.986603 -5580.0 
-2950.1206 64.02509 -5672.0 
-2982.071 64.02509 -5672.0 
-3014.0217 64.02509 -5672.0 
-3149.08 66.192375 -5864.0 
-3294.442 68.52898 -6071.0 
1431.2894 13.833348 -2451.0 
1417.4827 13.833348 -2451.0 
1434.6016 14.138123 -2505.0 
1441.472 14.346949 -2542.0 
1448.4872 14.5614195 -2580.0 
1444.5139 14.668654 -2599.0 
1440.8767 14.781534 -2619.0 
1447.905 15.007293 -2659.0 
1466.8772 15.362862 -2722.0 
1474.4744 15.605552 -2765.0 
1482.6423 15.85953 -2810.0 
1479.3412 15.994985 -2834.0 
1487.6464 16.260252 -2881.0 
1496.4434 16.536806 -2930.0 
1492.5659 16.677906 -2955.0 
1501.393 16.965746 -3006.0 
1510.6329 17.264877 -3059.0 
1534.4102 17.73897 -3143.0 
1544.6943 18.06632 -3201.0 
1555.7557 18.4106 -3262.0 
1566.6013 18.760527 -3324.0 
1563.2439 18.946777 -3357.0 
1574.696 19.319279 -3423.0 
1571.3181 19.516817 -3458.0 
1633.5146 20.54402 -3640.0 
1613.0103 20.54402 -3640.0 
1626.631 20.984247 -3718.0 
1623.3939 21.215649 -3759.0 
1655.9248 21.926788 -3885.0 
1652.9675 22.180767 -3930.0 
1668.5918 22.694366 -4021.0 
1665.1799 22.959635 -4068.0 
3314.131 47.66325 -8445.0 
3266.5598 47.66325 -8445.0 
1777.0228 27.113588 -4804.0 
1749.9614 27.113588 -4804.0 
1722.9001 27.113588 -4804.0 
1719.8431 27.497377 -4872.0 
1741.3785 28.293177 -5013.0 
1867.9612 34.874035 -6179.0 
2071.067 45.43953 -8051.0 
2074.276 46.528816 -8244.0 
2027.837 46.528816 -8244.0 
1981.3978 46.528816 -8244.0 
1934.9589 46.528816 -8244.0 
1844.3079 45.43953 -8051.0 
1798.9559 45.43953 -8051.0 
1839.422 47.66325 -8445.0 
1791.8506 47.66325 -8445.0 
1788.0673 48.859768 -8657.0 
1783.9045 50.112732 -8879.0 
1403.4977 44.406685 -7868.0 
1390.7896 45.43953 -8051.0 
1314.8556 44.406685 -7868.0 
1140.7039 39.868942 -7064.0 
1057.5858 38.29992 -6786.0 
1019.36 38.29992 -6786.0 
962.19385 37.560562 -6655.0 
942.90796 38.29992 -6786.0 
904.682 38.29992 -6786.0 
866.4559 38.29992 -6786.0 
292.4501 17.580938 -3115.0 
274.90314 17.580938 -3115.0 
257.35608 17.580938 -3115.0 
239.80911 17.580938 -3115.0 
224.2599 17.73897 -3143.0 
206.55522 17.73897 -3143.0 
188.85054 17.73897 -3143.0 
169.62105 17.580938 -3115.0 
153.44104 17.73897 -3143.0 
135.73624 17.73897 -3143.0 
119.12061 17.902645 -3172.0 
101.25256 17.902645 -3172.0 
43.663776 9.3746195 -1661.0 
33.66698 9.1996565 -1630.0 
24.364874 9.154505 -1622.0 
15.0872345 9.069845 -1607.0 
6.008629 9.030337 -1600.0 
-3.0174005 9.069845 -1607.0 
-12.017258 9.030337 -1600.0 
-20.924994 8.985186 -1592.0 
-29.761375 8.945678 -1585.0 
-38.689766 8.945678 -1585.0 
-47.618156 8.945678 -1585.0 
-56.54666 8.945678 -1585.0 
-65.18589 8.906171 -1578.0 
-73.74625 8.866663 -1571.0 
-82.59578 8.866663 -1571.0 
-91.445305 8.866663 -1571.0 
-100.294945 8.866663 -1571.0 
-109.14447 8.866663 -1571.0 
-116.867386 8.782003 -1556.0 
-125.06723 8.742496 -1549.0 
-133.18822 8.702989 -1542.0 
-141.32245 8.669125 -1536.0 
-149.97482 8.669125 -1536.0 
-158.6272 8.669125 -1536.0 
-167.27957 8.669125 -1536.0 
-175.13016 8.629617 -1529.0 
-184.58441 8.669125 -1536.0 
-193.23679 8.669125 -1536.0 
-202.6778 8.702989 -1542.0 
-212.32347 8.742496 -1549.0 
-223.04692 8.821511 -1563.0 
-234.07655 8.906171 -1578.0 
-242.96552 8.906171 -1578.0 
-251.85448 8.906171 -1578.0 
-261.9001 8.945678 -1585.0 
-270.8285 8.945678 -1585.0 
-279.757 8.945678 -1585.0 
-288.68536 8.945678 -1585.0 
-297.61377 8.945678 -1585.0 
-307.896 8.985186 -1592.0 
-318.4561 9.030337 -1600.0 
-328.90176 9.069845 -1607.0 
-337.95404 9.069845 -1607.0 
-348.73386 9.114997 -1615.0 
-361.15472 9.1996565 -1630.0 
-373.74463 9.284316 -1645.0 
-383.0111 9.284316 -1645.0 
-867.5602 18.760527 -3324.0 
-895.0833 18.946777 -3357.0 
-913.99347 18.946777 -3357.0 
-932.9036 18.946777 -3357.0 
-961.17035 19.133028 -3390.0 
-980.2666 19.133028 -3390.0 
-989.63434 18.946777 -3357.0 
-1008.5445 18.946777 -3357.0 
-1027.4547 18.946777 -3357.0 
-1056.6509 19.133028 -3390.0 
-1075.7471 19.133028 -3390.0 
-1094.8431 19.133028 -3390.0 
-1113.9392 19.133028 -3390.0 
-1144.0648 19.319279 -3423.0 
-1163.3467 19.319279 -3423.0 
-1182.629 19.319279 -3423.0 
-1201.9109 19.319279 -3423.0 
-1221.1929 19.319279 -3423.0 
-1240.4749 19.319279 -3423.0 
-1259.7567 19.319279 -3423.0 
-1292.117 19.516817 -3458.0 
-1311.5961 19.516817 -3458.0 
-1344.5476 19.714355 -3493.0 
-1364.2239 19.714355 -3493.0 
-1383.9001 19.714355 -3493.0 
-2544.729 32.548725 -5767.0 
-2620.5635 33.096188 -5864.0 
-2609.7007 32.548725 -5767.0 
-2598.662 32.012547 -5672.0 
-2587.944 31.493301 -5580.0 
-2619.3767 31.493301 -5580.0 
-2650.809 31.493301 -5580.0 
-2639.4602 30.990992 -5491.0 
-2670.3916 30.990992 -5491.0 
-2701.3228 30.990992 -5491.0 
-2732.254 30.990992 -5491.0 
-2763.185 30.990992 -5491.0 
-2839.404 31.493301 -5580.0 
-2870.8372 31.493301 -5580.0 
-2950.1206 32.012547 -5672.0 
-2982.071 32.012547 -5672.0 
-3064.5034 32.548725 -5767.0 
-3203.8562 33.67187 -5966.0 
-3353.0483 34.874035 -6179.0 
1421.3619 0.0 -2434.0 
1427.8926 0.0 -2469.0 
1434.6016 0.0 -2505.0 
1441.472 0.0 -2542.0 
1448.4872 0.0 -2580.0 
1444.5139 0.0 -2599.0 
1451.88 0.0 -2639.0 
1459.3402 0.0 -2680.0 
1466.8772 0.0 -2722.0 
1474.4744 0.0 -2765.0 
1482.6423 0.0 -2810.0 
1491.3473 0.0 -2857.0 
1487.6464 0.0 -2881.0 
1509.2115 0.0 -2955.0 
1505.1934 0.0 -2980.0 
1501.393 0.0 -3006.0 
1510.6329 0.0 -3059.0 
1520.7406 0.0 -3115.0 
1544.6943 0.0 -3201.0 
1555.7557 0.0 -3262.0 
1551.9911 0.0 -3293.0 
1563.2439 0.0 -3357.0 
1559.5149 0.0 -3390.0 
1587.2222 0.0 -3493.0 
1599.857 0.0 -3565.0 
1579.7751 0.0 -3565.0 
1626.631 0.0 -3718.0 
1623.3939 0.0 -3759.0 
1637.5968 0.0 -3842.0 
1634.0404 0.0 -3885.0 
1649.5032 0.0 -3975.0 
3266.5598 0.0 -8445.0 
1802.1763 0.0 -4872.0 
1749.9614 0.0 -4804.0 
1722.9001 0.0 -4804.0 
1719.8431 0.0 -4872.0 
1716.7151 0.0 -4942.0 
1835.3118 0.0 -6071.0 
2074.276 0.0 -8244.0 
2027.837 0.0 -8244.0 
1981.3978 0.0 -8244.0 
1982.1359 0.0 -8445.0 
1888.52 0.0 -8244.0 
1798.9559 0.0 -8051.0 
1795.642 0.0 -8244.0 
1791.8506 0.0 -8445.0 
1788.0673 0.0 -8657.0 
1783.9045 0.0 -8879.0 
1447.8185 0.0 -7868.0 
1403.4977 0.0 -7868.0 
1359.1769 0.0 -7868.0 
1230.7972 0.0 -7365.0 
1095.812 0.0 -6786.0 
1057.5858 0.0 -6786.0 
1019.36 0.0 -6786.0 
981.13416 0.0 -6786.0 
942.90796 0.0 -6786.0 
904.682 0.0 -6786.0 
866.4559 0.0 -6786.0 
828.23 0.0 -6786.0 
289.82135 0.0 -3087.0 
272.43213 0.0 -3087.0 
257.35608 0.0 -3115.0 
239.80911 0.0 -3115.0 
224.2599 0.0 -3143.0 
206.55522 0.0 -3143.0 
188.85054 0.0 -3143.0 
171.14574 0.0 -3143.0 
153.44104 0.0 -3143.0 
135.73624 0.0 -3143.0 
119.12061 0.0 -3172.0 
101.25256 0.0 -3172.0 
84.14675 0.0 -3201.0 
33.66698 0.0 -1630.0 
24.485046 0.0 -1630.0 
15.228061 0.0 -1622.0 
6.0349164 0.0 -1607.0 
-3.0174005 0.0 -1607.0 
-12.069833 0.0 -1607.0 
-20.924994 0.0 -1592.0 
-29.761375 0.0 -1585.0 
-38.689766 0.0 -1585.0 
-47.618156 0.0 -1585.0 
-56.54666 0.0 -1585.0 
-65.18589 0.0 -1578.0 
-74.074844 0.0 -1578.0 
-82.17518 0.0 -1563.0 
-90.979645 0.0 -1563.0 
-100.74184 0.0 -1578.0 
-109.14447 0.0 -1571.0 
-116.867386 0.0 -1556.0 
-125.06723 0.0 -1549.0 
-133.18822 0.0 -1542.0 
-141.8745 0.0 -1542.0 
-150.56067 0.0 -1542.0 
-159.24684 0.0 -1542.0 
-167.933 0.0 -1542.0 
-175.93195 0.0 -1536.0 
-184.58441 0.0 -1536.0 
-193.99162 0.0 -1542.0 
-202.6778 0.0 -1542.0 
-212.32347 0.0 -1549.0 
-223.04692 0.0 -1563.0 
-234.07655 0.0 -1578.0 
-242.96552 0.0 -1578.0 
-251.85448 0.0 -1578.0 
-261.9001 0.0 -1585.0 
-269.6324 0.0 -1578.0 
-279.757 0.0 -1585.0 
-288.68536 0.0 -1585.0 
-297.61377 0.0 -1585.0 
-306.54214 0.0 -1585.0 
-316.86377 0.0 -1592.0 
-327.46906 0.0 -1600.0 
-337.95404 0.0 -1607.0 
-348.73386 0.0 -1615.0 
-362.92728 0.0 -1638.0 
-373.74463 0.0 -1645.0 
-381.3813 0.0 -1638.0 
-859.4692 0.0 -3293.0 
-886.2844 0.0 -3324.0 
-905.0087 0.0 -3324.0 
-932.9036 0.0 -3357.0 
-951.8138 0.0 -3357.0 
-970.7242 0.0 -3357.0 
-989.63434 0.0 -3357.0 
-1008.5445 0.0 -3357.0 
-1027.4547 0.0 -3357.0 
-1056.6509 0.0 -3390.0 
-1075.7471 0.0 -3390.0 
-1094.8431 0.0 -3390.0 
-1113.9392 0.0 -3390.0 
-1144.0648 0.0 -3423.0 
-1163.3467 0.0 -3423.0 
-1182.629 0.0 -3423.0 
-1201.9109 0.0 -3423.0 
-1221.1929 0.0 -3423.0 
-1240.4749 0.0 -3423.0 
-1259.7567 0.0 -3423.0 
-1292.117 0.0 -3458.0 
-1311.5961 0.0 -3458.0 
-1344.5476 0.0 -3493.0 
-1350.5543 0.0 -3458.0 
-1370.0334 0.0 -3458.0 
-2544.729 0.0 -5767.0 
-2534.7603 0.0 -5672.0 
-2566.711 0.0 -5672.0 
-2598.662 0.0 -5672.0 
-2630.6128 0.0 -5672.0 
-2619.3767 0.0 -5580.0 
-2694.5142 0.0 -5672.0 
-2682.2415 0.0 -5580.0 
-2670.3916 0.0 -5491.0 
-2701.3228 0.0 -5491.0 
-2732.254 0.0 -5491.0 
-2763.185 0.0 -5491.0 
-2794.1162 0.0 -5491.0 
-2825.0476 0.0 -5491.0 
-2902.2693 0.0 -5580.0 
-2982.071 0.0 -5672.0 
-3064.5034 0.0 -5767.0 
-3203.8562 0.0 -5966.0 
-3294.442 0.0 -6071.0 
1431.2894 -13.833415 -2451.0 
1438.3026 -14.036597 -2487.0 
1444.9102 -14.239781 -2523.0 
1441.472 -14.347017 -2542.0 
1448.4872 -14.561488 -2580.0 
1444.5139 -14.668725 -2599.0 
1451.88 -14.894484 -2639.0 
1459.3402 -15.125889 -2680.0 
1466.8772 -15.362936 -2722.0 
1474.4744 -15.605627 -2765.0 
1471.0345 -15.735438 -2788.0 
1491.3473 -16.124872 -2857.0 
1500.0391 -16.395784 -2905.0 
1509.2115 -16.677984 -2955.0 
1505.1934 -16.819084 -2980.0 
1514.8785 -17.118216 -3033.0 
1510.6329 -17.26496 -3059.0 
1520.7406 -17.581022 -3115.0 
1530.7 -17.902729 -3172.0 
1555.7557 -18.410688 -3262.0 
1551.9911 -18.585653 -3293.0 
1563.2439 -18.946869 -3357.0 
1574.696 -19.31937 -3423.0 
1587.2222 -19.714449 -3493.0 
1583.2526 -19.91199 -3528.0 
1596.1713 -20.329645 -3602.0 
1609.5684 -20.76423 -3679.0 
1641.1005 -21.447155 -3800.0 
1655.9248 -21.926893 -3885.0 
1652.9675 -22.180872 -3930.0 
1688.0955 -22.959743 -4068.0 
3314.131 -47.66348 -8445.0 
3266.5598 -47.66348 -8445.0 
3299.7966 -48.860004 -8657.0 
1882.5714 -28.293312 -5013.0 
1828.0697 -27.892588 -4942.0 
1774.7318 -27.497509 -4872.0 
1747.2876 -27.497509 -4872.0 
1719.8431 -27.497509 -4872.0 
1741.3785 -28.293312 -5013.0 
2025.7151 -45.439747 -8051.0 
1980.3633 -45.439747 -8051.0 
1981.3978 -46.529037 -8244.0 
1982.1359 -47.66348 -8445.0 
1888.52 -46.529037 -8244.0 
1798.9559 -45.439747 -8051.0 
1795.642 -46.529037 -8244.0 
1836.8326 -48.860004 -8657.0 
1788.0673 -48.860004 -8657.0 
1696.7084 -47.66348 -8445.0 
1572.1968 -45.439747 -8051.0 
1492.1398 -44.406895 -7868.0 
1447.8185 -44.406895 -7868.0 
1403.4977 -44.406895 -7868.0 
1359.1769 -44.406895 -7868.0 
1134.038 -38.300102 -6786.0 
1095.812 -38.300102 -6786.0 
1057.5858 -38.300102 -6786.0 
1019.36 -38.300102 -6786.0 
981.13416 -38.300102 -6786.0 
942.90796 -38.300102 -6786.0 
904.682 -38.300102 -6786.0 
866.4559 -38.300102 -6786.0 
828.23 -38.300102 -6786.0 
289.82135 -17.42299 -3087.0 
274.90314 -17.581022 -3115.0 
257.35608 -17.581022 -3115.0 
239.80911 -17.581022 -3115.0 
222.26205 -17.581022 -3115.0 
204.71509 -17.581022 -3115.0 
188.85054 -17.739054 -3143.0 
171.14574 -17.739054 -3143.0 
153.44104 -17.739054 -3143.0 
135.73624 -17.739054 -3143.0 
118.031555 -17.739054 -3143.0 
101.25256 -17.902729 -3172.0 
83.38441 -17.902729 -3172.0 
66.11534 -18.066406 -3201.0 
48.53447 -18.235725 -3231.0 
15.4439945 -9.28436 -1645.0 
6.1212907 -9.1997 -1630.0 
-3.0324218 -9.11504 -1615.0 
-12.069833 -9.069888 -1607.0 
-21.030144 -9.03038 -1600.0 
-29.761375 -8.945722 -1585.0 
-38.689766 -8.945722 -1585.0 
-47.618156 -8.945722 -1585.0 
-56.29693 -8.906213 -1578.0 
-65.18589 -8.906213 -1578.0 
-73.74625 -8.866705 -1571.0 
-81.80715 -8.782044 -1556.0 
-90.979645 -8.821553 -1563.0 
-100.294945 -8.866705 -1571.0 
-109.63079 -8.906213 -1578.0 
-117.39314 -8.821553 -1563.0 
-125.632416 -8.782044 -1556.0 
-133.79283 -8.7425375 -1549.0 
-142.51855 -8.7425375 -1549.0 
-151.24414 -8.7425375 -1549.0 
-159.96974 -8.7425375 -1549.0 
-167.933 -8.70303 -1542.0 
-175.93195 -8.669166 -1536.0 
-185.30547 -8.70303 -1542.0 
-194.87225 -8.7425375 -1549.0 
-203.59785 -8.7425375 -1549.0 
-212.32347 -8.7425375 -1549.0 
-222.04799 -8.782044 -1556.0 
-234.07655 -8.906213 -1578.0 
-244.0433 -8.945722 -1585.0 
-252.9717 -8.945722 -1585.0 
-261.9001 -8.945722 -1585.0 
-269.6324 -8.906213 -1578.0 
-278.52145 -8.906213 -1578.0 
-287.41043 -8.906213 -1578.0 
-297.61377 -8.945722 -1585.0 
-307.896 -8.985229 -1592.0 
-318.4561 -9.03038 -1600.0 
-327.46906 -9.03038 -1600.0 
-337.95404 -9.069888 -1607.0 
-348.73386 -9.11504 -1615.0 
-362.92728 -9.244852 -1638.0 
-373.74463 -9.28436 -1645.0 
-840.9194 -18.585653 -3293.0 
-859.4692 -18.585653 -3293.0 
-878.01886 -18.585653 -3293.0 
-896.5685 -18.585653 -3293.0 
-923.73303 -18.760616 -3324.0 
-951.8138 -18.946869 -3357.0 
-970.7242 -18.946869 -3357.0 
-989.63434 -18.946869 -3357.0 
-1008.5445 -18.946869 -3357.0 
-1037.5547 -19.133118 -3390.0 
-1056.6509 -19.133118 -3390.0 
-1075.7471 -19.133118 -3390.0 
-1084.1854 -18.946869 -3357.0 
-1113.9392 -19.133118 -3390.0 
-1133.0353 -19.133118 -3390.0 
-1163.3467 -19.31937 -3423.0 
-1171.2275 -19.133118 -3390.0 
-1201.9109 -19.31937 -3423.0 
-1221.1929 -19.31937 -3423.0 
-1240.4749 -19.31937 -3423.0 
-1272.6377 -19.51691 -3458.0 
-1292.117 -19.51691 -3458.0 
-1311.5961 -19.51691 -3458.0 
-1331.0752 -19.51691 -3458.0 
-1350.5543 -19.51691 -3458.0 
-1370.0334 -19.51691 -3458.0 
-2544.729 -32.548878 -5767.0 
-2534.7603 -32.0127 -5672.0 
-2566.711 -32.0127 -5672.0 
-2598.662 -32.0127 -5672.0 
-2630.6128 -32.0127 -5672.0 
-2662.5635 -32.0127 -5672.0 
-2694.5142 -32.0127 -5672.0 
-2682.2415 -31.493454 -5580.0 
-2670.3916 -30.991138 -5491.0 
-2701.3228 -30.991138 -5491.0 
-2732.254 -30.991138 -5491.0 
-2807.9717 -31.493454 -5580.0 
-2839.404 -31.493454 -5580.0 
-2918.17 -32.0127 -5672.0 
-2950.1206 -32.0127 -5672.0 
-2982.071 -32.0127 -5672.0 
-3260.2432 -34.26465 -6071.0 
1421.3619 -27.474802 -2434.0 
1438.3026 -28.073063 -2487.0 
1434.6016 -28.276245 -2505.0 
1430.6979 -28.479427 -2523.0 
1448.4872 -29.122839 -2580.0 
1444.5139 -29.337309 -2599.0 
1451.88 -29.788826 -2639.0 
1447.905 -30.014585 -2659.0 
1466.8772 -30.725723 -2722.0 
1474.4744 -31.211103 -2765.0 
1471.0345 -31.470728 -2788.0 
1479.3412 -31.98997 -2834.0 
1500.0391 -32.791412 -2905.0 
1496.4434 -33.073612 -2930.0 
1518.3259 -33.93149 -3006.0 
1514.8785 -34.236267 -3033.0 
1510.6329 -34.529755 -3059.0 
1534.4102 -35.47794 -3143.0 
1544.6943 -36.13264 -3201.0 
1540.9708 -36.47128 -3231.0 
1551.9911 -37.171127 -3293.0 
1578.611 -38.266056 -3390.0 
1574.696 -38.638557 -3423.0 
1587.2222 -39.42871 -3493.0 
1599.857 -40.241444 -3565.0 
1596.1713 -40.659096 -3602.0 
1592.5059 -41.08804 -3640.0 
1641.1005 -42.894104 -3800.0 
1637.5968 -43.3682 -3842.0 
1652.9675 -44.361534 -3930.0 
1668.5918 -45.388733 -4021.0 
3314.131 -95.3265 -8445.0 
3266.5598 -95.3265 -8445.0 
3218.9885 -95.3265 -8445.0 
3171.4172 -95.3265 -8445.0 
1777.0228 -54.227177 -4804.0 
1774.7318 -54.994755 -4872.0 
1747.2876 -54.994755 -4872.0 
1719.8431 -54.994755 -4872.0 
1741.3785 -56.586353 -5013.0 
1738.4287 -57.42166 -5087.0 
2074.276 -93.05763 -8244.0 
2077.2783 -95.3265 -8445.0 
1758.0654 -88.81337 -7868.0 
1795.642 -93.05763 -8244.0 
1883.9364 -100.225464 -8879.0 
1536.4606 -88.81337 -7868.0 
1492.1398 -88.81337 -7868.0 
1447.8185 -88.81337 -7868.0 
1403.4977 -88.81337 -7868.0 
1328.946 -86.83798 -7693.0 
1134.038 -76.59984 -6786.0 
1074.6581 -75.121124 -6655.0 
1037.1698 -75.121124 -6655.0 
1019.36 -76.59984 -6786.0 
981.13416 -76.59984 -6786.0 
942.90796 -76.59984 -6786.0 
887.2177 -75.121124 -6655.0 
849.7295 -75.121124 -6655.0 
828.23 -76.59984 -6786.0 
292.4501 -35.161877 -3115.0 
274.90314 -35.161877 -3115.0 
259.6694 -35.47794 -3143.0 
241.9647 -35.47794 -3143.0 
224.2599 -35.47794 -3143.0 
204.71509 -35.161877 -3115.0 
188.85054 -35.47794 -3143.0 
171.14574 -35.47794 -3143.0 
153.44104 -35.47794 -3143.0 
135.73624 -35.47794 -3143.0 
118.031555 -35.47794 -3143.0 
101.25256 -35.80529 -3172.0 
83.38441 -35.80529 -3172.0 
65.51636 -35.80529 -3172.0 
48.083824 -36.13264 -3201.0 
15.59421 -18.749239 -1661.0 
6.151334 -18.489616 -1638.0 
-3.0455656 -18.30901 -1622.0 
-12.129919 -18.229994 -1615.0 
-21.12215 -18.13969 -1607.0 
-29.892815 -17.970371 -1592.0 
-38.689766 -17.891356 -1585.0 
-47.618156 -17.891356 -1585.0 
-56.54666 -17.891356 -1585.0 
-65.18589 -17.812342 -1578.0 
-73.74625 -17.733326 -1571.0 
-82.59578 -17.733326 -1571.0 
-91.445305 -17.733326 -1571.0 
-100.294945 -17.733326 -1571.0 
-109.63079 -17.812342 -1578.0 
-117.39314 -17.643023 -1563.0 
-125.632416 -17.564007 -1556.0 
-134.39745 -17.564007 -1556.0 
-143.1626 -17.564007 -1556.0 
-151.24414 -17.484991 -1549.0 
-159.96974 -17.484991 -1549.0 
-168.69536 -17.484991 -1549.0 
-177.42094 -17.484991 -1549.0 
-186.14667 -17.484991 -1549.0 
-194.87225 -17.484991 -1549.0 
-204.51793 -17.564007 -1556.0 
-213.28296 -17.564007 -1556.0 
-223.04692 -17.643023 -1563.0 
-234.07655 -17.812342 -1578.0 
-244.0433 -17.891356 -1585.0 
-252.9717 -17.891356 -1585.0 
-261.9001 -17.891356 -1585.0 
-270.8285 -17.891356 -1585.0 
-278.52145 -17.812342 -1578.0 
-287.41043 -17.812342 -1578.0 
-296.29938 -17.812342 -1578.0 
-306.54214 -17.891356 -1585.0 
-316.86377 -17.970371 -1592.0 
-327.46906 -18.060675 -1600.0 
-337.95404 -18.13969 -1607.0 
-348.73386 -18.229994 -1615.0 
-362.92728 -18.489616 -1638.0 
-375.56223 -18.658934 -1653.0 
-840.9194 -37.171127 -3293.0 
-859.4692 -37.171127 -3293.0 
-878.01886 -37.171127 -3293.0 
-896.5685 -37.171127 -3293.0 
-923.73303 -37.521053 -3324.0 
-942.4573 -37.521053 -3324.0 
-961.18176 -37.521053 -3324.0 
-989.63434 -37.893555 -3357.0 
-1008.5445 -37.893555 -3357.0 
-1037.5547 -38.266056 -3390.0 
-1056.6509 -38.266056 -3390.0 
-1075.7471 -38.266056 -3390.0 
-1084.1854 -37.893555 -3357.0 
-1103.0956 -37.893555 -3357.0 
-1133.0353 -38.266056 -3390.0 
-1163.3467 -38.638557 -3423.0 
-1182.629 -38.638557 -3423.0 
-1201.9109 -38.638557 -3423.0 
-1221.1929 -38.638557 -3423.0 
-1240.4749 -38.638557 -3423.0 
-1272.6377 -39.033634 -3458.0 
-1279.0388 -38.638557 -3423.0 
-1311.5961 -39.033634 -3458.0 
-1331.0752 -39.033634 -3458.0 
-1350.5543 -39.033634 -3458.0 
-1370.0334 -39.033634 -3458.0 
-2544.729 -65.09745 -5767.0 
-2577.2148 -65.09745 -5767.0 
-2566.711 -64.02509 -5672.0 
-2598.662 -64.02509 -5672.0 
-2630.6128 -64.02509 -5672.0 
-2662.5635 -64.02509 -5672.0 
-2694.5142 -64.02509 -5672.0 
-2682.2415 -62.986603 -5580.0 
-2713.6746 -62.986603 -5580.0 
-2701.3228 -61.981983 -5491.0 
-2732.254 -61.981983 -5491.0 
-2763.185 -61.981983 -5491.0 
-2886.2185 -64.02509 -5672.0 
-2918.17 -64.02509 -5672.0 
-2999.532 -65.09745 -5767.0 
1421.3619 -41.21227 -2434.0 
1438.3026 -42.10966 -2487.0 
1434.6016 -42.414436 -2505.0 
1430.6979 -42.719208 -2523.0 
1448.4872 -43.684326 -2580.0 
1444.5139 -44.006035 -2599.0 
1462.8833 -45.02195 -2659.0 
1459.3402 -45.377518 -2680.0 
1478.1941 -46.44423 -2743.0 
1474.4744 -46.816734 -2765.0 
1471.0345 -47.206165 -2788.0 
1479.3412 -47.985035 -2834.0 
1500.0391 -49.1872 -2905.0 
1509.2115 -50.033794 -2955.0 
1505.1934 -50.457092 -2980.0 
1514.8785 -51.354485 -3033.0 
1510.6329 -51.794712 -3059.0 
1548.568 -53.70802 -3172.0 
1559.1714 -54.707 -3231.0 
1540.9708 -54.707 -3231.0 
1551.9911 -55.75678 -3293.0 
1578.611 -57.399178 -3390.0 
1574.696 -57.957928 -3423.0 
1571.3181 -58.550545 -3458.0 
1583.2526 -59.735775 -3528.0 
1596.1713 -60.988743 -3602.0 
1609.5684 -62.292496 -3679.0 
1641.1005 -64.341255 -3800.0 
1655.9248 -65.78047 -3885.0 
1671.8947 -67.304344 -3975.0 
1688.0955 -68.879005 -4068.0 
1685.2373 -69.70868 -4117.0 
3235.2512 -139.58667 -8244.0 
3188.8123 -139.58667 -8244.0 
3142.373 -139.58667 -8244.0 
3171.4172 -142.98999 -8445.0 
1777.0228 -81.3409 -4804.0 
1749.9614 -81.3409 -4804.0 
1722.9001 -81.3409 -4804.0 
1719.8431 -82.49226 -4872.0 
1741.3785 -84.87967 -5013.0 
1764.4009 -87.41945 -5163.0 
1536.4606 -133.22028 -7868.0 
1492.1398 -133.22028 -7868.0 
1447.8185 -133.22028 -7868.0 
1403.4977 -133.22028 -7868.0 
1328.946 -130.25717 -7693.0 
1134.038 -114.89994 -6786.0 
1095.812 -114.89994 -6786.0 
1057.5858 -114.89994 -6786.0 
1019.36 -114.89994 -6786.0 
981.13416 -114.89994 -6786.0 
942.90796 -114.89994 -6786.0 
887.2177 -112.68186 -6655.0 
849.7295 -112.68186 -6655.0 
812.24146 -112.68186 -6655.0 
774.7535 -112.68186 -6655.0 
292.4501 -52.7429 -3115.0 
274.90314 -52.7429 -3115.0 
257.35608 -52.7429 -3115.0 
241.9647 -53.21699 -3143.0 
224.2599 -53.21699 -3143.0 
204.71509 -52.7429 -3115.0 
187.1681 -52.7429 -3115.0 
169.62105 -52.7429 -3115.0 
152.07408 -52.7429 -3115.0 
135.73624 -53.21699 -3143.0 
118.031555 -53.21699 -3143.0 
101.25256 -53.70802 -3172.0 
82.62206 -53.21699 -3143.0 
65.51636 -53.70802 -3172.0 
48.083824 -54.199043 -3201.0 
30.052418 -54.199043 -3201.0 
6.151334 -27.734468 -1638.0 
-3.060587 -27.599012 -1630.0 
-12.129919 -27.345034 -1615.0 
-21.12215 -27.20958 -1607.0 
-30.04303 -27.091057 -1600.0 
-38.689766 -26.837078 -1585.0 
-47.618156 -26.837078 -1585.0 
-56.54666 -26.837078 -1585.0 
-65.18589 -26.718554 -1578.0 
-74.074844 -26.718554 -1578.0 
-82.963806 -26.718554 -1578.0 
-91.85276 -26.718554 -1578.0 
-100.74184 -26.718554 -1578.0 
-109.63079 -26.718554 -1578.0 
-117.994 -26.60003 -1571.0 
-126.84353 -26.60003 -1571.0 
-135.69305 -26.60003 -1571.0 
-144.5427 -26.60003 -1571.0 
-151.92763 -26.346052 -1556.0 
-160.69266 -26.346052 -1556.0 
-169.45769 -26.346052 -1556.0 
-177.42094 -26.227528 -1549.0 
-186.98785 -26.346052 -1556.0 
-196.63353 -26.464575 -1563.0 
-205.43799 -26.464575 -1563.0 
-213.28296 -26.346052 -1556.0 
-224.18855 -26.60003 -1571.0 
-234.07655 -26.718554 -1578.0 
-244.0433 -26.837078 -1585.0 
-252.9717 -26.837078 -1585.0 
-261.9001 -26.837078 -1585.0 
-269.6324 -26.718554 -1578.0 
-278.52145 -26.718554 -1578.0 
-287.41043 -26.718554 -1578.0 
-297.61377 -26.837078 -1585.0 
-306.54214 -26.837078 -1585.0 
-316.86377 -26.9556 -1592.0 
-327.46906 -27.091057 -1600.0 
-337.95404 -27.20958 -1607.0 
-348.73386 -27.345034 -1615.0 
-364.47824 -27.852991 -1645.0 
-375.56223 -27.988447 -1653.0 
-840.9194 -55.75678 -3293.0 
-859.4692 -55.75678 -3293.0 
-886.2844 -56.28167 -3324.0 
-905.0087 -56.28167 -3324.0 
-923.73303 -56.28167 -3324.0 
-942.4573 -56.28167 -3324.0 
-970.7242 -56.840424 -3357.0 
-999.3627 -57.399178 -3390.0 
-1018.45874 -57.399178 -3390.0 
-1037.5547 -57.399178 -3390.0 
-1056.6509 -57.399178 -3390.0 
-1075.7471 -57.399178 -3390.0 
-1084.1854 -56.840424 -3357.0 
-1113.9392 -57.399178 -3390.0 
-1133.0353 -57.399178 -3390.0 
-1163.3467 -57.957928 -3423.0 
-1182.629 -57.957928 -3423.0 
-1201.9109 -57.957928 -3423.0 
-1209.4197 -57.399178 -3390.0 
-1240.4749 -57.957928 -3423.0 
-1259.7567 -57.957928 -3423.0 
-1279.0388 -57.957928 -3423.0 
-1311.5961 -58.550545 -3458.0 
-1331.0752 -58.550545 -3458.0 
-1364.2239 -59.14316 -3493.0 
-1370.0334 -58.550545 -3458.0 
-2470.8591 -96.037796 -5672.0 
-2544.729 -97.646324 -5767.0 
-2577.2148 -97.646324 -5767.0 
-2566.711 -96.037796 -5672.0 
-2598.662 -96.037796 -5672.0 
-2630.6128 -96.037796 -5672.0 
-2662.5635 -96.037796 -5672.0 
-2694.5142 -96.037796 -5672.0 
-2682.2415 -94.48006 -5580.0 
-2713.6746 -94.48006 -5580.0 
-2701.3228 -92.973114 -5491.0 
-2732.254 -92.973114 -5491.0 
-2807.9717 -94.48006 -5580.0 
-2886.2185 -96.037796 -5672.0 
-2918.17 -96.037796 -5672.0 
1421.3619 -54.949604 -2434.0 
1427.8926 -55.739758 -2469.0 
1434.6016 -56.55249 -2505.0 
