ply
format ascii 1.0
comment this is my Proccessing file
element vertex 1666
property float x
property float y
property float z
end_header
-1455.7051 1836.1741 -6922.0 
-1494.697 1836.1741 -6922.0 
-1533.6891 1836.1741 -6922.0 
-1572.681 1836.1741 -6922.0 
-1580.0083 1800.0979 -6786.0 
-1650.6655 1836.1741 -6922.0 
-1724.3197 1873.8418 -7064.0 
-1800.8224 1912.8362 -7211.0 
-1841.4421 1912.8362 -7211.0 
-1806.634 1836.1741 -6922.0 
-1845.6261 1836.1741 -6922.0 
-1884.618 1836.1741 -6922.0 
-1923.61 1836.1741 -6922.0 
-1962.602 1836.1741 -6922.0 
-2001.5946 1836.1741 -6922.0 
-2040.5865 1836.1741 -6922.0 
-2079.5786 1836.1741 -6922.0 
-2118.5706 1836.1741 -6922.0 
-2157.5625 1836.1741 -6922.0 
-2196.555 1836.1741 -6922.0 
-2235.547 1836.1741 -6922.0 
-2274.539 1836.1741 -6922.0 
-2268.076 1800.0979 -6786.0 
-2352.523 1836.1741 -6922.0 
-2391.5156 1836.1741 -6922.0 
-2382.7542 1800.0979 -6786.0 
-2420.98 1800.0979 -6786.0 
-2459.206 1800.0979 -6786.0 
-2497.432 1800.0979 -6786.0 
-2535.6582 1800.0979 -6786.0 
-2573.884 1800.0979 -6786.0 
-2742.4438 1836.1741 -6922.0 
-2781.4365 1836.1741 -6922.0 
-2820.4285 1836.1741 -6922.0 
-2803.24 1800.0979 -6786.0 
-2786.613 1765.3479 -6655.0 
-2824.1008 1765.3479 -6655.0 
-3093.373 1836.1741 -6922.0 
-3132.365 1836.1741 -6922.0 
-3171.3574 1836.1741 -6922.0 
-3210.3494 1836.1741 -6922.0 
-3288.3335 1836.1741 -6922.0 
-3327.3254 1836.1741 -6922.0 
-3300.1782 1800.0979 -6786.0 
-3338.404 1800.0979 -6786.0 
-3376.63 1800.0979 -6786.0 
-3414.856 1800.0979 -6786.0 
-3453.0818 1800.0979 -6786.0 
-3491.308 1800.0979 -6786.0 
-3600.2705 1836.1741 -6922.0 
-3713.9194 1873.8418 -7064.0 
-3678.2544 1836.1741 -6922.0 
-3717.2463 1836.1741 -6922.0 
-3682.4382 1800.0979 -6786.0 
-3720.664 1800.0979 -6786.0 
-3758.89 1800.0979 -6786.0 
-3797.116 1800.0979 -6786.0 
-3761.3025 1765.3479 -6655.0 
-3727.439 1732.1896 -6530.0 
-3693.8958 1699.8271 -6408.0 
-3873.767 1765.3479 -6655.0 
-3988.2458 1800.0979 -6786.0 
-4026.472 1800.0979 -6786.0 
1029.5239 457.7144 -1763.0 
1019.59283 457.7144 -1763.0 
1014.816 460.05096 -1772.0 
1004.8342 460.05096 -1772.0 
994.8524 460.05096 -1772.0 
994.87494 464.72418 -1790.0 
990.2934 467.32043 -1800.0 
980.1539 467.32043 -1800.0 
970.01434 467.32043 -1800.0 
964.67413 469.65698 -1809.0 
964.509 474.58984 -1828.0 
954.2117 474.58984 -1828.0 
949.07806 477.18607 -1838.0 
938.72455 477.18607 -1838.0 
933.4219 479.7823 -1848.0 
928.00665 482.3785 -1858.0 
922.4787 484.97473 -1868.0 
916.83813 487.57095 -1878.0 
906.2593 487.57095 -1878.0 
895.68036 487.57095 -1878.0 
889.81445 490.16718 -1888.0 
884.3016 493.023 -1899.0 
873.6044 493.023 -1899.0 
862.90717 493.023 -1899.0 
856.69763 495.61923 -1909.0 
855.6931 501.33093 -1931.0 
849.1906 503.92715 -1941.0 
843.00745 506.78305 -1952.0 
832.0117 506.78305 -1952.0 
821.0159 506.78305 -1952.0 
814.9998 509.89847 -1964.0 
803.93646 509.89847 -1964.0 
797.31384 512.75433 -1975.0 
786.18854 512.75433 -1975.0 
775.06323 512.75433 -1975.0 
768.1928 515.61017 -1986.0 
761.5795 518.72565 -1998.0 
750.32465 518.72565 -1998.0 
743.1388 521.5815 -2009.0 
736.1932 524.69696 -2021.0 
724.8088 524.69696 -2021.0 
717.66034 527.81244 -2033.0 
706.2084 527.81244 -2033.0 
698.8572 530.9279 -2045.0 
691.37085 534.0434 -2057.0 
679.7836 534.0434 -2057.0 
668.19635 534.0434 -2057.0 
660.4397 537.1588 -2069.0 
648.78485 537.1588 -2069.0 
641.1333 540.53394 -2082.0 
633.3352 543.90906 -2095.0 
625.094 547.02454 -2107.0 
613.22516 547.02454 -2107.0 
605.06665 550.3996 -2120.0 
593.1245 550.3996 -2120.0 
581.18243 550.3996 -2120.0 
572.7309 553.77466 -2133.0 
564.3959 557.4094 -2147.0 
555.6459 560.7845 -2160.0 
543.4784 560.7845 -2160.0 
531.311 560.7845 -2160.0 
522.50836 564.4192 -2174.0 
510.2621 564.4192 -2174.0 
500.99387 567.7943 -2187.0 
494.93076 575.0637 -2215.0 
482.4535 575.0637 -2215.0 
473.1589 578.95807 -2230.0 
460.5972 578.95807 -2230.0 
450.84827 582.5928 -2244.0 
444.066 590.3814 -2274.0 
431.25644 590.3814 -2274.0 
421.20703 594.27576 -2289.0 
405.63724 590.3814 -2274.0 
395.41885 594.27576 -2289.0 
385.03146 598.1701 -2304.0 
374.6366 602.3241 -2320.0 
363.90555 606.21844 -2335.0 
350.75238 606.21844 -2335.0 
339.9125 610.3724 -2351.0 
326.6691 610.3724 -2351.0 
313.4258 610.3724 -2351.0 
300.1824 610.3724 -2351.0 
290.96674 618.9399 -2384.0 
279.4002 623.0939 -2400.0 
265.8808 623.0939 -2400.0 
252.36147 623.0939 -2400.0 
240.53386 627.5075 -2417.0 
228.5148 631.921 -2434.0 
216.30421 636.3346 -2451.0 
201.09299 631.921 -2434.0 
190.07664 641.0078 -2469.0 
177.45287 645.681 -2487.0 
163.44347 645.681 -2487.0 
181.96306 1797.1066 -6922.0 
140.16205 1761.798 -6786.0 
99.96809 1727.7875 -6655.0 
62.480114 1727.7875 -6655.0 
25.484098 1761.798 -6786.0 
-12.997168 1797.1066 -6922.0 
-51.989662 1797.1066 -6922.0 
-90.98166 1797.1066 -6922.0 
-132.63998 1833.9729 -7064.0 
-165.6459 1761.798 -6786.0 
-207.95766 1797.1066 -6922.0 
-242.09819 1761.798 -6786.0 
-285.94214 1797.1066 -6922.0 
-331.59995 1833.9729 -7064.0 
-371.39185 1833.9729 -7064.0 
-411.18372 1833.9729 -7064.0 
-441.91064 1797.1066 -6922.0 
-480.90265 1797.1066 -6922.0 
-519.89465 1797.1066 -6922.0 
-570.3518 1833.9729 -7064.0 
-586.13184 1761.798 -6786.0 
-649.93604 1833.9729 -7064.0 
-662.5841 1761.798 -6786.0 
-714.8551 1797.1066 -6922.0 
-753.8471 1797.1066 -6922.0 
-792.83905 1797.1066 -6922.0 
-831.83167 1797.1066 -6922.0 
-926.5553 1912.1194 -7365.0 
-909.8156 1797.1066 -6922.0 
-948.80756 1797.1066 -6922.0 
-987.79956 1797.1066 -6922.0 
-1104.7761 1797.1066 -6922.0 
-1167.2317 1833.9729 -7064.0 
-1207.0236 1833.9729 -7064.0 
-1221.7526 1797.1066 -6922.0 
-1260.7446 1797.1066 -6922.0 
-1299.7366 1797.1066 -6922.0 
-1338.7285 1797.1066 -6922.0 
-1405.9835 1833.9729 -7064.0 
-1416.7131 1797.1066 -6922.0 
-1455.7051 1797.1066 -6922.0 
-1525.3597 1833.9729 -7064.0 
-1533.6891 1797.1066 -6922.0 
-1572.681 1797.1066 -6922.0 
-1611.6736 1797.1066 -6922.0 
-1719.5824 1872.1375 -7211.0 
-1760.2024 1872.1375 -7211.0 
-1800.8224 1872.1375 -7211.0 
-1841.4421 1872.1375 -7211.0 
-1843.6958 1833.9729 -7064.0 
-1883.4878 1833.9729 -7064.0 
-1884.618 1797.1066 -6922.0 
-2003.9226 1872.1375 -7211.0 
-2044.5425 1872.1375 -7211.0 
-2042.6558 1833.9729 -7064.0 
-2082.4478 1833.9729 -7064.0 
-2166.4028 1872.1375 -7211.0 
-2254.1565 1912.1194 -7365.0 
-2247.6428 1872.1375 -7211.0 
-2288.2632 1872.1375 -7211.0 
-2328.883 1872.1375 -7211.0 
-2321.1997 1833.9729 -7064.0 
-2313.531 1797.1066 -6922.0 
-2352.523 1797.1066 -6922.0 
-2391.5156 1797.1066 -6922.0 
-2430.5076 1797.1066 -6922.0 
-2469.4995 1797.1066 -6922.0 
-2508.4915 1797.1066 -6922.0 
-2547.4834 1797.1066 -6922.0 
-2586.476 1797.1066 -6922.0 
-2573.884 1761.798 -6786.0 
-2838.4956 1833.9729 -7064.0 
-2878.2878 1833.9729 -7064.0 
-2859.4204 1797.1066 -6922.0 
-2937.4045 1797.1066 -6922.0 
-3037.4556 1833.9729 -7064.0 
-3077.2478 1833.9729 -7064.0 
-3156.8313 1833.9729 -7064.0 
-3132.365 1797.1066 -6922.0 
-3236.4155 1833.9729 -7064.0 
-3276.2078 1833.9729 -7064.0 
-3457.2957 1912.1194 -7365.0 
-3355.7913 1833.9729 -7064.0 
-3327.3254 1797.1066 -6922.0 
-3366.3179 1797.1066 -6922.0 
-3338.404 1761.798 -6786.0 
-3514.9595 1833.9729 -7064.0 
-3483.294 1797.1066 -6922.0 
-3522.286 1797.1066 -6922.0 
-3491.308 1761.798 -6786.0 
-3600.2705 1797.1066 -6922.0 
-3713.9194 1833.9729 -7064.0 
-3753.7112 1833.9729 -7064.0 
-3717.2463 1797.1066 -6922.0 
-3756.239 1797.1066 -6922.0 
-3795.231 1797.1066 -6922.0 
-3834.223 1797.1066 -6922.0 
-3873.2148 1797.1066 -6922.0 
-3912.2068 1797.1066 -6922.0 
-3951.1995 1797.1066 -6922.0 
-3911.2551 1727.7875 -6655.0 
-3948.743 1727.7875 -6655.0 
-4064.698 1761.798 -6786.0 
1024.2683 445.47827 -1754.0 
1019.59283 447.76407 -1763.0 
1014.816 450.0499 -1772.0 
1004.8342 450.0499 -1772.0 
994.8524 450.0499 -1772.0 
989.8728 452.3357 -1781.0 
990.2934 457.1613 -1800.0 
980.1539 457.1613 -1800.0 
970.01434 457.1613 -1800.0 
964.67413 459.44708 -1809.0 
959.7603 461.98688 -1819.0 
954.2117 464.27267 -1828.0 
949.07806 466.81247 -1838.0 
938.72455 466.81247 -1838.0 
933.4219 469.35223 -1848.0 
928.00665 471.89203 -1858.0 
922.4787 474.43182 -1868.0 
916.83813 476.9716 -1878.0 
906.2593 476.9716 -1878.0 
895.68036 476.9716 -1878.0 
889.81445 479.51138 -1888.0 
884.3016 482.30515 -1899.0 
878.2047 484.84494 -1909.0 
867.4512 484.84494 -1909.0 
861.6341 487.6387 -1920.0 
855.6931 490.43246 -1931.0 
844.81555 490.43246 -1931.0 
838.25684 492.97226 -1941.0 
827.3231 492.97226 -1941.0 
821.0159 495.76602 -1952.0 
814.9998 498.81375 -1964.0 
803.93646 498.81375 -1964.0 
797.31384 501.6075 -1975.0 
786.18854 501.6075 -1975.0 
775.06323 501.6075 -1975.0 
763.9379 501.6075 -1975.0 
757.00543 504.40128 -1986.0 
750.32465 507.44904 -1998.0 
743.1388 510.2428 -2009.0 
736.1932 513.2905 -2021.0 
724.8088 513.2905 -2021.0 
713.42426 513.2905 -2021.0 
706.2084 516.33826 -2033.0 
698.8572 519.386 -2045.0 
691.37085 522.4338 -2057.0 
679.7836 522.4338 -2057.0 
668.19635 522.4338 -2057.0 
660.4397 525.4815 -2069.0 
648.78485 525.4815 -2069.0 
641.1333 528.7832 -2082.0 
633.3352 532.08496 -2095.0 
625.094 535.1327 -2107.0 
613.22516 535.1327 -2107.0 
605.06665 538.4344 -2120.0 
593.1245 538.4344 -2120.0 
581.18243 538.4344 -2120.0 
572.7309 541.73615 -2133.0 
564.3959 545.2918 -2147.0 
555.6459 548.5935 -2160.0 
543.4784 548.5935 -2160.0 
531.311 548.5935 -2160.0 
522.50836 552.14923 -2174.0 
513.31335 555.4509 -2187.0 
500.99387 555.4509 -2187.0 
494.93076 562.5624 -2215.0 
482.4535 562.5624 -2215.0 
473.1589 566.372 -2230.0 
460.5972 566.372 -2230.0 
450.84827 569.92773 -2244.0 
441.1368 573.7374 -2259.0 
431.25644 577.54706 -2274.0 
418.4468 577.54706 -2274.0 
408.31293 581.35675 -2289.0 
395.41885 581.35675 -2289.0 
385.03146 585.16644 -2304.0 
374.6366 589.2301 -2320.0 
363.90555 593.0398 -2335.0 
350.75238 593.0398 -2335.0 
337.59918 593.0398 -2335.0 
326.6691 597.10345 -2351.0 
313.4258 597.10345 -2351.0 
302.22534 601.16705 -2367.0 
290.96674 605.48474 -2384.0 
279.4002 609.5484 -2400.0 
265.8808 609.5484 -2400.0 
254.14903 613.866 -2417.0 
240.53386 613.866 -2417.0 
226.91876 613.866 -2417.0 
214.80394 618.18365 -2434.0 
201.09299 618.18365 -2434.0 
188.69089 622.5013 -2451.0 
174.88419 622.5013 -2451.0 
162.26053 627.0729 -2469.0 
149.43407 631.64453 -2487.0 
136.40472 636.2161 -2505.0 
142.97107 1758.0391 -6922.0 
103.97883 1758.0391 -6922.0 
64.98683 1758.0391 -6922.0 
25.994831 1758.0391 -6922.0 
-13.263795 1794.104 -7064.0 
-53.056194 1794.104 -7064.0 
-94.78023 1831.4388 -7211.0 
-132.63998 1794.104 -7064.0 
-168.96565 1758.0391 -6922.0 
-207.95766 1758.0391 -6922.0 
-252.01614 1794.104 -7064.0 
-291.80804 1794.104 -7064.0 
-338.50046 1831.4388 -7211.0 
-387.21698 1870.5515 -7365.0 
-419.74036 1831.4388 -7211.0 
-450.97614 1794.104 -7064.0 
-490.768 1794.104 -7064.0 
-519.89465 1758.0391 -6922.0 
-663.46106 1831.4388 -7211.0 
-689.72797 1794.104 -7064.0 
-714.8551 1758.0391 -6922.0 
-753.8471 1758.0391 -6922.0 
-792.83905 1758.0391 -6922.0 
-848.896 1794.104 -7064.0 
-926.5553 1870.5515 -7365.0 
-928.47986 1794.104 -7064.0 
-968.2717 1794.104 -7064.0 
-1150.9015 1831.4388 -7211.0 
-1191.5215 1831.4388 -7211.0 
-1232.1414 1831.4388 -7211.0 
-1246.8159 1794.104 -7064.0 
-1313.3818 1831.4388 -7211.0 
-1354.0018 1831.4388 -7211.0 
-1366.1917 1794.104 -7064.0 
-1435.2417 1831.4388 -7211.0 
-1475.8622 1831.4388 -7211.0 
-1516.482 1831.4388 -7211.0 
-1557.102 1831.4388 -7211.0 
-1565.1516 1794.104 -7064.0 
-1604.9435 1794.104 -7064.0 
-1644.7358 1794.104 -7064.0 
-1719.5824 1831.4388 -7211.0 
-1760.2024 1831.4388 -7211.0 
-1800.8224 1831.4388 -7211.0 
-1880.7687 1870.5515 -7365.0 
-1882.0627 1831.4388 -7211.0 
-1883.4878 1794.104 -7064.0 
-1963.3026 1831.4388 -7211.0 
-2003.9226 1831.4388 -7211.0 
-2044.5425 1831.4388 -7211.0 
-2085.163 1831.4388 -7211.0 
-2171.1816 1870.5515 -7365.0 
-2212.6692 1870.5515 -7365.0 
-2254.1565 1870.5515 -7365.0 
-2295.644 1870.5515 -7365.0 
-2288.2632 1831.4388 -7211.0 
-2328.883 1831.4388 -7211.0 
-2321.1997 1794.104 -7064.0 
-2410.123 1831.4388 -7211.0 
-2400.7834 1794.104 -7064.0 
-2440.5757 1794.104 -7064.0 
-2480.3677 1794.104 -7064.0 
-2627.5447 1870.5515 -7365.0 
-2613.2234 1831.4388 -7211.0 
-2653.8435 1831.4388 -7211.0 
-2639.5356 1794.104 -7064.0 
-2625.468 1758.0391 -6922.0 
-2897.564 1831.4388 -7211.0 
-3060.044 1831.4388 -7211.0 
-3100.6643 1831.4388 -7211.0 
-3141.2842 1831.4388 -7211.0 
-3181.9043 1831.4388 -7211.0 
-3156.8313 1794.104 -7064.0 
-3196.6233 1794.104 -7064.0 
-3303.7644 1831.4388 -7211.0 
-3344.3845 1831.4388 -7211.0 
-3457.2957 1870.5515 -7365.0 
-3355.7913 1794.104 -7064.0 
-3466.2444 1831.4388 -7211.0 
-3435.3755 1794.104 -7064.0 
-3547.4849 1831.4388 -7211.0 
-3588.1047 1831.4388 -7211.0 
-3554.7512 1794.104 -7064.0 
-3522.286 1758.0391 -6922.0 
-3600.2705 1758.0391 -6922.0 
-3713.9194 1794.104 -7064.0 
-3831.825 1831.4388 -7211.0 
-3872.445 1831.4388 -7211.0 
-3834.223 1758.0391 -6922.0 
-3952.6711 1794.104 -7064.0 
-3992.4631 1794.104 -7064.0 
-4116.1655 1831.4388 -7211.0 
-4245.559 1870.5515 -7365.0 
-3948.743 1690.2268 -6655.0 
-4064.698 1723.498 -6786.0 
1024.2683 435.57877 -1754.0 
1014.3879 435.57877 -1754.0 
1009.66174 437.81378 -1763.0 
999.73065 437.81378 -1763.0 
994.8524 440.0488 -1772.0 
989.8728 442.2838 -1781.0 
990.2934 447.00214 -1800.0 
985.0546 449.23715 -1809.0 
974.86444 449.23715 -1809.0 
964.67413 449.23715 -1809.0 
959.7603 451.7205 -1819.0 
954.2117 453.9555 -1828.0 
949.07806 456.43887 -1838.0 
938.72455 456.43887 -1838.0 
933.4219 458.9222 -1848.0 
928.00665 461.40555 -1858.0 
922.4787 463.8889 -1868.0 
916.83813 466.37225 -1878.0 
906.2593 466.37225 -1878.0 
900.44965 468.8556 -1888.0 
894.9988 471.58728 -1899.0 
884.3016 471.58728 -1899.0 
873.6044 471.58728 -1899.0 
862.90717 471.58728 -1899.0 
861.6341 476.80228 -1920.0 
855.6931 479.534 -1931.0 
844.81555 479.534 -1931.0 
838.25684 482.01733 -1941.0 
832.0117 484.74896 -1952.0 
821.0159 484.74896 -1952.0 
814.9998 487.72903 -1964.0 
803.93646 487.72903 -1964.0 
797.31384 490.4607 -1975.0 
786.18854 490.4607 -1975.0 
775.06323 490.4607 -1975.0 
768.1928 493.19238 -1986.0 
757.00543 493.19238 -1986.0 
750.32465 496.1724 -1998.0 
743.1388 498.90408 -2009.0 
736.1932 501.8841 -2021.0 
724.8088 501.8841 -2021.0 
713.42426 501.8841 -2021.0 
706.2084 504.8641 -2033.0 
702.9581 510.8241 -2057.0 
691.37085 510.8241 -2057.0 
679.7836 510.8241 -2057.0 
668.19635 510.8241 -2057.0 
660.4397 513.80414 -2069.0 
648.78485 513.80414 -2069.0 
641.1333 517.0325 -2082.0 
633.3352 520.2608 -2095.0 
625.094 523.24084 -2107.0 
613.22516 523.24084 -2107.0 
605.06665 526.4692 -2120.0 
593.1245 526.4692 -2120.0 
581.18243 526.4692 -2120.0 
572.7309 529.6976 -2133.0 
564.3959 533.1742 -2147.0 
555.6459 536.4026 -2160.0 
543.4784 536.4026 -2160.0 
534.7547 539.8793 -2174.0 
522.50836 539.8793 -2174.0 
516.5993 546.5843 -2201.0 
504.20093 546.5843 -2201.0 
494.93076 550.061 -2215.0 
482.4535 550.061 -2215.0 
469.97623 550.061 -2215.0 
460.5972 553.786 -2230.0 
450.84827 557.2627 -2244.0 
444.066 564.7127 -2274.0 
431.25644 564.7127 -2274.0 
418.4468 564.7127 -2274.0 
408.31293 568.43774 -2289.0 
395.41885 568.43774 -2289.0 
385.03146 572.1628 -2304.0 
374.6366 576.1361 -2320.0 
361.56784 576.1361 -2320.0 
350.75238 579.8611 -2335.0 
337.59918 579.8611 -2335.0 
326.6691 583.8345 -2351.0 
313.4258 583.8345 -2351.0 
300.1824 583.8345 -2351.0 
288.8919 587.8078 -2367.0 
277.53754 592.02954 -2384.0 
265.8808 596.00287 -2400.0 
254.14903 600.22455 -2417.0 
240.53386 600.22455 -2417.0 
226.91876 600.22455 -2417.0 
214.80394 604.4463 -2434.0 
201.09299 604.4463 -2434.0 
188.69089 608.6679 -2451.0 
174.88419 608.6679 -2451.0 
161.07758 608.6679 -2451.0 
148.35251 613.13794 -2469.0 
145.90402 1754.2351 -7064.0 
106.111885 1754.2351 -7064.0 
67.70009 1790.7402 -7211.0 
26.528097 1754.2351 -7064.0 
-13.263795 1754.2351 -7064.0 
-53.056194 1754.2351 -7064.0 
-94.78023 1790.7402 -7211.0 
-135.40018 1790.7402 -7211.0 
-176.02014 1790.7402 -7211.0 
-221.2667 1828.9838 -7365.0 
-252.01614 1754.2351 -7064.0 
-291.80804 1754.2351 -7064.0 
-345.72955 1828.9838 -7365.0 
-387.21698 1828.9838 -7365.0 
-428.70444 1828.9838 -7365.0 
-460.3608 1790.7402 -7211.0 
-500.98077 1790.7402 -7211.0 
-677.6301 1828.9838 -7365.0 
-719.11755 1828.9838 -7365.0 
-744.701 1790.7402 -7211.0 
-785.3209 1790.7402 -7211.0 
-809.1037 1754.2351 -7064.0 
-866.56134 1790.7402 -7211.0 
-926.5553 1828.9838 -7365.0 
-947.8013 1790.7402 -7211.0 
-988.4212 1790.7402 -7211.0 
-1029.0411 1790.7402 -7211.0 
-1092.5056 1828.9838 -7365.0 
-1175.4805 1828.9838 -7365.0 
-1216.9679 1828.9838 -7365.0 
-1232.1414 1790.7402 -7211.0 
-1246.8159 1754.2351 -7064.0 
-1286.6079 1754.2351 -7064.0 
-1354.0018 1790.7402 -7211.0 
-1394.6218 1790.7402 -7211.0 
-1465.8932 1828.9838 -7365.0 
-1475.8622 1790.7402 -7211.0 
-1516.482 1790.7402 -7211.0 
-1557.102 1790.7402 -7211.0 
-1597.722 1790.7402 -7211.0 
-1638.3419 1790.7402 -7211.0 
-1714.8187 1828.9838 -7365.0 
-1756.3063 1828.9838 -7365.0 
-1797.7937 1828.9838 -7365.0 
-1800.8224 1790.7402 -7211.0 
-1880.7687 1828.9838 -7365.0 
-1922.2565 1828.9838 -7365.0 
-1963.744 1828.9838 -7365.0 
-2005.2314 1828.9838 -7365.0 
-2046.7189 1828.9838 -7365.0 
-2088.2063 1828.9838 -7365.0 
-2129.694 1828.9838 -7365.0 
-2171.1816 1828.9838 -7365.0 
-2212.6692 1828.9838 -7365.0 
-2254.1565 1828.9838 -7365.0 
-2295.644 1828.9838 -7365.0 
-2337.1318 1828.9838 -7365.0 
-2328.883 1790.7402 -7211.0 
-2369.5032 1790.7402 -7211.0 
-2461.5945 1828.9838 -7365.0 
-2450.743 1790.7402 -7211.0 
-2491.3635 1790.7402 -7211.0 
-2684.6265 1868.7173 -7525.0 
-2669.0322 1828.9838 -7365.0 
-2653.8435 1790.7402 -7211.0 
-2694.4636 1790.7402 -7211.0 
-2735.0837 1790.7402 -7211.0 
-2876.47 1828.9838 -7365.0 
-2917.957 1828.9838 -7365.0 
-2897.564 1790.7402 -7211.0 
-3000.9326 1828.9838 -7365.0 
-2978.804 1790.7402 -7211.0 
-2997.6633 1754.2351 -7064.0 
-3208.3704 1828.9838 -7365.0 
-3249.858 1828.9838 -7365.0 
-3222.5242 1790.7402 -7211.0 
-3263.1443 1790.7402 -7211.0 
-3303.7644 1790.7402 -7211.0 
-3344.3845 1790.7402 -7211.0 
-3385.0044 1790.7402 -7211.0 
-3355.7913 1754.2351 -7064.0 
-3466.2444 1790.7402 -7211.0 
-3506.8647 1790.7402 -7211.0 
-3623.2456 1828.9838 -7365.0 
-3588.1047 1790.7402 -7211.0 
-3628.7249 1790.7402 -7211.0 
-3594.5432 1754.2351 -7064.0 
-3713.9194 1754.2351 -7064.0 
-3831.825 1790.7402 -7211.0 
-4347.964 1910.4374 -7693.0 
-4491.193 1953.896 -7868.0 
-4337.791 1868.7173 -7525.0 
-4477.9697 1910.4374 -7693.0 
-4328.534 1828.9838 -7365.0 
-4107.1675 1718.9716 -6922.0 
-4146.16 1718.9716 -6922.0 
1019.01263 423.49506 -1745.0 
1014.3879 425.67926 -1754.0 
1009.66174 427.86346 -1763.0 
1004.8342 430.04767 -1772.0 
999.9052 432.2319 -1781.0 
994.87494 434.41614 -1790.0 
990.2934 436.84302 -1800.0 
980.1539 436.84302 -1800.0 
970.01434 436.84302 -1800.0 
964.67413 439.02722 -1809.0 
959.7603 441.45413 -1819.0 
959.43164 446.06528 -1838.0 
949.07806 446.06528 -1838.0 
938.72455 446.06528 -1838.0 
933.4219 448.49216 -1848.0 
923.012 448.49216 -1848.0 
917.5404 450.91907 -1858.0 
916.83813 455.7729 -1878.0 
906.2593 455.7729 -1878.0 
895.68036 455.7729 -1878.0 
889.81445 458.1998 -1888.0 
884.3016 460.8694 -1899.0 
873.6044 460.8694 -1899.0 
867.4512 463.2963 -1909.0 
861.6341 465.96588 -1920.0 
855.6931 468.6355 -1931.0 
844.81555 468.6355 -1931.0 
833.9382 468.6355 -1931.0 
827.3231 471.0624 -1941.0 
821.0159 473.732 -1952.0 
814.9998 476.64426 -1964.0 
803.93646 476.64426 -1964.0 
797.31384 479.31384 -1975.0 
786.18854 479.31384 -1975.0 
775.06323 479.31384 -1975.0 
772.8344 484.89575 -1998.0 
761.5795 484.89575 -1998.0 
750.32465 484.89575 -1998.0 
743.1388 487.56534 -2009.0 
736.1932 490.47766 -2021.0 
724.8088 490.47766 -2021.0 
713.42426 490.47766 -2021.0 
706.2084 493.38992 -2033.0 
698.8572 496.3022 -2045.0 
687.3376 496.3022 -2045.0 
679.7836 499.2145 -2057.0 
668.19635 499.2145 -2057.0 
660.4397 502.12677 -2069.0 
652.8614 505.28177 -2082.0 
641.1333 505.28177 -2082.0 
633.3352 508.4367 -2095.0 
625.094 511.34903 -2107.0 
613.22516 511.34903 -2107.0 
605.06665 514.50397 -2120.0 
593.1245 514.50397 -2120.0 
584.7463 517.659 -2133.0 
572.7309 517.659 -2133.0 
564.3959 521.05664 -2147.0 
552.3017 521.05664 -2147.0 
543.4784 524.2116 -2160.0 
534.7547 527.60925 -2174.0 
522.50836 527.60925 -2174.0 
516.5993 534.162 -2201.0 
504.20093 534.162 -2201.0 
494.93076 537.5596 -2215.0 
479.40417 534.162 -2201.0 
469.97623 537.5596 -2215.0 
460.5972 541.19995 -2230.0 
450.84827 544.5976 -2244.0 
441.1368 548.238 -2259.0 
428.41174 548.238 -2259.0 
418.4468 551.87836 -2274.0 
408.31293 555.5187 -2289.0 
395.41885 555.5187 -2289.0 
385.03146 559.15906 -2304.0 
374.6366 563.0421 -2320.0 
361.56784 563.0421 -2320.0 
350.75238 566.68243 -2335.0 
337.59918 566.68243 -2335.0 
326.6691 570.56555 -2351.0 
313.4258 570.56555 -2351.0 
300.1824 570.56555 -2351.0 
288.8919 574.4486 -2367.0 
277.53754 578.5743 -2384.0 
265.8808 582.45734 -2400.0 
252.36147 582.45734 -2400.0 
238.84206 582.45734 -2400.0 
226.91876 586.5831 -2417.0 
214.80394 590.7088 -2434.0 
202.49753 594.8346 -2451.0 
190.07664 599.203 -2469.0 
176.16853 599.203 -2469.0 
162.26053 599.203 -2469.0 
148.35251 599.203 -2469.0 
148.94025 1750.0416 -7211.0 
108.32004 1750.0416 -7211.0 
67.70009 1750.0416 -7211.0 
27.080137 1750.0416 -7211.0 
-13.828971 1787.416 -7365.0 
-54.160275 1750.0416 -7211.0 
-94.78023 1750.0416 -7211.0 
-135.40018 1750.0416 -7211.0 
-179.77925 1787.416 -7365.0 
-226.07358 1826.2466 -7525.0 
-262.75467 1787.416 -7365.0 
-297.8805 1750.0416 -7211.0 
-338.50046 1750.0416 -7211.0 
-387.21698 1787.416 -7365.0 
-438.01776 1826.2466 -7525.0 
-480.40704 1826.2466 -7525.0 
-692.35126 1826.2466 -7525.0 
-734.7399 1826.2466 -7525.0 
-760.60504 1787.416 -7365.0 
-819.51746 1826.2466 -7525.0 
-843.5799 1787.416 -7365.0 
-885.0679 1787.416 -7365.0 
-926.5553 1787.416 -7365.0 
-989.0729 1826.2466 -7525.0 
-1009.5302 1787.416 -7365.0 
-1051.0176 1787.416 -7365.0 
-1092.5056 1787.416 -7365.0 
-1133.993 1787.416 -7365.0 
-1150.9015 1750.0416 -7211.0 
-1216.9679 1787.416 -7365.0 
-1232.1414 1750.0416 -7211.0 
-1246.8159 1714.3662 -7064.0 
-1286.6079 1714.3662 -7064.0 
-1354.0018 1750.0416 -7211.0 
-1394.6218 1750.0416 -7211.0 
-1435.2417 1750.0416 -7211.0 
-1507.381 1787.416 -7365.0 
-1548.8685 1787.416 -7365.0 
-1624.9054 1826.2466 -7525.0 
-1631.8434 1787.416 -7365.0 
-1673.3309 1787.416 -7365.0 
-1714.8187 1787.416 -7365.0 
-1756.3063 1787.416 -7365.0 
-1836.8496 1826.2466 -7525.0 
-1839.2811 1787.416 -7365.0 
-1880.7687 1787.416 -7365.0 
-1922.2565 1787.416 -7365.0 
-1963.744 1787.416 -7365.0 
-2005.2314 1787.416 -7365.0 
-2091.1826 1826.2466 -7525.0 
-2133.5713 1826.2466 -7525.0 
-2175.9604 1826.2466 -7525.0 
-2171.1816 1787.416 -7365.0 
-2166.4028 1750.0416 -7211.0 
-2254.1565 1787.416 -7365.0 
-2295.644 1787.416 -7365.0 
-2337.1318 1787.416 -7365.0 
-2378.6194 1787.416 -7365.0 
-2420.107 1787.416 -7365.0 
-2515.071 1826.2466 -7525.0 
-2557.4595 1826.2466 -7525.0 
-2657.892 1867.0186 -7693.0 
-2642.2375 1826.2466 -7525.0 
-2684.6265 1826.2466 -7525.0 
-2669.0322 1787.416 -7365.0 
-2710.5193 1787.416 -7365.0 
-2752.0076 1787.416 -7365.0 
-2793.4949 1787.416 -7365.0 
-2896.5706 1826.2466 -7525.0 
-2876.47 1787.416 -7365.0 
-2981.348 1826.2466 -7525.0 
-2959.4453 1787.416 -7365.0 
-3000.9326 1787.416 -7365.0 
-2978.804 1750.0416 -7211.0 
-3083.9077 1787.416 -7365.0 
-3249.858 1787.416 -7365.0 
-3291.3455 1787.416 -7365.0 
-3332.8325 1787.416 -7365.0 
-3374.3208 1787.416 -7365.0 
-3415.808 1787.416 -7365.0 
-3385.0044 1750.0416 -7211.0 
-3498.7832 1787.416 -7365.0 
-3466.2444 1750.0416 -7211.0 
-3581.7585 1787.416 -7365.0 
-3623.2456 1787.416 -7365.0 
-3664.7332 1787.416 -7365.0 
-3706.2207 1787.416 -7365.0 
-3872.171 1787.416 -7365.0 
-4087.9531 1867.0186 -7693.0 
-4162.5835 1787.416 -7365.0 
-4391.3 1867.0186 -7693.0 
-4535.5137 1909.4894 -7868.0 
-4579.8345 1909.4894 -7868.0 
-4521.305 1867.0186 -7693.0 
-4464.957 1826.2466 -7525.0 
-4319.2656 1750.0416 -7211.0 
1019.01263 413.64627 -1745.0 
1014.3879 415.7797 -1754.0 
1009.66174 417.91312 -1763.0 
1004.8342 420.04654 -1772.0 
999.9052 422.17996 -1781.0 
994.87494 424.31335 -1790.0 
990.2934 426.68384 -1800.0 
980.1539 426.68384 -1800.0 
970.01434 426.68384 -1800.0 
964.67413 428.81726 -1809.0 
964.509 433.32114 -1828.0 
959.43164 435.69162 -1838.0 
954.24176 438.06207 -1848.0 
943.83185 438.06207 -1848.0 
933.4219 438.06207 -1848.0 
928.00665 440.43256 -1858.0 
922.4787 442.803 -1868.0 
911.9562 442.803 -1868.0 
906.2593 445.17346 -1878.0 
895.68036 445.17346 -1878.0 
889.81445 447.54395 -1888.0 
884.3016 450.15146 -1899.0 
878.2047 452.52194 -1909.0 
872.4496 455.12943 -1920.0 
861.6341 455.12943 -1920.0 
855.6931 457.73694 -1931.0 
844.81555 457.73694 -1931.0 
833.9382 457.73694 -1931.0 
827.3231 460.10742 -1941.0 
821.0159 462.7149 -1952.0 
814.9998 465.55948 -1964.0 
803.93646 465.55948 -1964.0 
797.31384 468.16702 -1975.0 
786.18854 468.16702 -1975.0 
775.06323 468.16702 -1975.0 
768.1928 470.77448 -1986.0 
761.5795 473.61905 -1998.0 
750.32465 473.61905 -1998.0 
743.1388 476.2266 -2009.0 
736.1932 479.0711 -2021.0 
724.8088 479.0711 -2021.0 
713.42426 479.0711 -2021.0 
706.2084 481.91568 -2033.0 
694.75635 481.91568 -2033.0 
687.3376 484.76028 -2045.0 
679.7836 487.6048 -2057.0 
672.0945 490.44937 -2069.0 
660.4397 490.44937 -2069.0 
652.8614 493.53098 -2082.0 
641.1333 493.53098 -2082.0 
633.3352 496.6126 -2095.0 
625.094 499.45712 -2107.0 
613.22516 499.45712 -2107.0 
605.06665 502.53876 -2120.0 
593.1245 502.53876 -2120.0 
584.7463 505.62036 -2133.0 
572.7309 505.62036 -2133.0 
560.7156 505.62036 -2133.0 
552.3017 508.939 -2147.0 
543.4784 512.0206 -2160.0 
534.7547 515.3393 -2174.0 
522.50836 515.3393 -2174.0 
513.31335 518.42084 -2187.0 
500.99387 518.42084 -2187.0 
491.8025 521.7395 -2201.0 
479.40417 521.7395 -2201.0 
473.1589 528.6139 -2230.0 
460.5972 528.6139 -2230.0 
450.84827 531.93256 -2244.0 
438.2076 531.93256 -2244.0 
428.41174 535.4882 -2259.0 
418.4468 539.04395 -2274.0 
408.31293 542.5996 -2289.0 
395.41885 542.5996 -2289.0 
385.03146 546.15533 -2304.0 
377.0588 553.5038 -2335.0 
363.90555 553.5038 -2335.0 
350.75238 553.5038 -2335.0 
337.59918 553.5038 -2335.0 
324.44595 553.5038 -2335.0 
313.4258 557.2965 -2351.0 
300.1824 557.2965 -2351.0 
288.8919 561.08923 -2367.0 
277.53754 565.1191 -2384.0 
265.8808 568.9118 -2400.0 
252.36147 568.9118 -2400.0 
238.84206 568.9118 -2400.0 
226.91876 572.9416 -2417.0 
214.80394 576.9714 -2434.0 
202.49753 581.00116 -2451.0 
190.07664 585.268 -2469.0 
176.16853 585.268 -2469.0 
162.26053 585.268 -2469.0 
148.35251 585.268 -2469.0 
148.94025 1709.3429 -7211.0 
67.70009 1709.3429 -7211.0 
27.65847 1745.848 -7365.0 
-13.828971 1745.848 -7365.0 
-55.31694 1745.848 -7365.0 
-96.80438 1745.848 -7365.0 
-138.29182 1745.848 -7365.0 
-187.78574 1823.5992 -7693.0 
-226.07358 1783.7755 -7525.0 
-268.46286 1783.7755 -7525.0 
-304.24213 1745.848 -7365.0 
-345.72955 1745.848 -7365.0 
-395.62903 1783.7755 -7525.0 
-447.79678 1823.5992 -7693.0 
-565.1845 1783.7755 -7525.0 
-594.6547 1745.848 -7365.0 
-649.962 1783.7755 -7525.0 
-692.35126 1783.7755 -7525.0 
-734.7399 1783.7755 -7525.0 
-777.12866 1783.7755 -7525.0 
-837.8136 1823.5992 -7693.0 
-861.9061 1783.7755 -7525.0 
-885.0679 1745.848 -7365.0 
-926.5553 1745.848 -7365.0 
-989.0729 1783.7755 -7525.0 
-1009.5302 1745.848 -7365.0 
-1073.8503 1783.7755 -7525.0 
-1092.5056 1745.848 -7365.0 
-1158.6283 1783.7755 -7525.0 
-1175.4805 1745.848 -7365.0 
-1191.5215 1709.3429 -7211.0 
-1232.1414 1709.3429 -7211.0 
-1272.762 1709.3429 -7211.0 
-1313.3818 1709.3429 -7211.0 
-1354.0018 1709.3429 -7211.0 
-1394.6218 1709.3429 -7211.0 
-1465.8932 1745.848 -7365.0 
-1507.381 1745.848 -7365.0 
-1548.8685 1745.848 -7365.0 
-1590.356 1745.848 -7365.0 
-1667.2941 1783.7755 -7525.0 
-1673.3309 1745.848 -7365.0 
-1714.8187 1745.848 -7365.0 
-1756.3063 1745.848 -7365.0 
-1836.8496 1783.7755 -7525.0 
-1879.2383 1783.7755 -7525.0 
-1921.6272 1783.7755 -7525.0 
-1922.2565 1745.848 -7365.0 
-1963.744 1745.848 -7365.0 
-2005.2314 1745.848 -7365.0 
-2091.1826 1783.7755 -7525.0 
-2133.5713 1783.7755 -7525.0 
-2175.9604 1783.7755 -7525.0 
-2218.3494 1783.7755 -7525.0 
-2212.6692 1745.848 -7365.0 
-2254.1565 1745.848 -7365.0 
-2295.644 1745.848 -7365.0 
-2337.1318 1745.848 -7365.0 
-2378.6194 1745.848 -7365.0 
-2472.6821 1783.7755 -7525.0 
-2515.071 1783.7755 -7525.0 
-2557.4595 1783.7755 -7525.0 
-2657.892 1823.5992 -7693.0 
-2642.2375 1783.7755 -7525.0 
-2684.6265 1783.7755 -7525.0 
-2669.0322 1745.848 -7365.0 
-2981.348 1783.7755 -7525.0 
-3023.7373 1783.7755 -7525.0 
-3066.126 1783.7755 -7525.0 
-3108.5146 1783.7755 -7525.0 
-3150.9036 1783.7755 -7525.0 
-3249.858 1745.848 -7365.0 
-3291.3455 1745.848 -7365.0 
-3405.2363 1783.7755 -7525.0 
-3447.6257 1783.7755 -7525.0 
-3490.0142 1783.7755 -7525.0 
-3457.2957 1745.848 -7365.0 
-3498.7832 1745.848 -7365.0 
-3540.2703 1745.848 -7365.0 
-3581.7585 1745.848 -7365.0 
-3623.2456 1745.848 -7365.0 
-3744.3474 1783.7755 -7525.0 
-4136.625 1865.0824 -7868.0 
-4180.946 1865.0824 -7868.0 
-4225.2666 1865.0824 -7868.0 
-4368.893 1908.462 -8051.0 
-4210.6245 1783.7755 -7525.0 
-4162.5835 1745.848 -7365.0 
-4491.193 1865.0824 -7868.0 
-4535.5137 1865.0824 -7868.0 
-4579.8345 1865.0824 -7868.0 
-4422.569 1783.7755 -7525.0 
-4370.0215 1745.848 -7365.0 
-4411.5093 1745.848 -7365.0 
1019.01263 403.79758 -1745.0 
1014.3879 405.8802 -1754.0 
1009.66174 407.9628 -1763.0 
1004.8342 410.04544 -1772.0 
999.9052 412.12805 -1781.0 
994.87494 414.2107 -1790.0 
990.2934 416.52472 -1800.0 
980.1539 416.52472 -1800.0 
970.01434 416.52472 -1800.0 
964.67413 418.60733 -1809.0 
964.509 423.004 -1828.0 
954.2117 423.004 -1828.0 
949.07806 425.31802 -1838.0 
943.83185 427.63205 -1848.0 
933.4219 427.63205 -1848.0 
928.00665 429.94608 -1858.0 
922.4787 432.2601 -1868.0 
911.9562 432.2601 -1868.0 
901.43365 432.2601 -1868.0 
895.68036 434.57413 -1878.0 
889.81445 436.88815 -1888.0 
884.3016 439.43356 -1899.0 
878.2047 441.7476 -1909.0 
872.4496 444.29303 -1920.0 
861.6341 444.29303 -1920.0 
850.8186 444.29303 -1920.0 
844.81555 446.83844 -1931.0 
833.9382 446.83844 -1931.0 
827.3231 449.15247 -1941.0 
821.0159 451.6979 -1952.0 
810.02014 451.6979 -1952.0 
803.93646 454.47473 -1964.0 
797.31384 457.02017 -1975.0 
786.18854 457.02017 -1975.0 
775.06323 457.02017 -1975.0 
768.1928 459.56558 -1986.0 
757.00543 459.56558 -1986.0 
750.32465 462.34244 -1998.0 
743.1388 464.88785 -2009.0 
731.8219 464.88785 -2009.0 
724.8088 467.66467 -2021.0 
713.42426 467.66467 -2021.0 
706.2084 470.44153 -2033.0 
694.75635 470.44153 -2033.0 
687.3376 473.21835 -2045.0 
679.7836 475.9952 -2057.0 
668.19635 475.9952 -2057.0 
660.4397 478.772 -2069.0 
648.78485 478.772 -2069.0 
641.1333 481.78027 -2082.0 
633.3352 484.78848 -2095.0 
625.094 487.56534 -2107.0 
613.22516 487.56534 -2107.0 
601.3563 487.56534 -2107.0 
593.1245 490.57355 -2120.0 
584.7463 493.5818 -2133.0 
576.49005 496.82144 -2147.0 
564.3959 496.82144 -2147.0 
552.3017 496.82144 -2147.0 
543.4784 499.82968 -2160.0 
534.7547 503.06927 -2174.0 
522.50836 503.06927 -2174.0 
510.2621 503.06927 -2174.0 
500.99387 506.07755 -2187.0 
491.8025 509.31714 -2201.0 
479.40417 509.31714 -2201.0 
469.97623 512.5568 -2215.0 
460.5972 516.02783 -2230.0 
450.84827 519.26746 -2244.0 
438.2076 519.26746 -2244.0 
428.41174 522.73846 -2259.0 
418.4468 526.20953 -2274.0 
408.31293 529.68054 -2289.0 
398.01007 533.1516 -2304.0 
387.7053 536.85406 -2320.0 
377.0588 540.32513 -2335.0 
363.90555 540.32513 -2335.0 
350.75238 540.32513 -2335.0 
337.59918 540.32513 -2335.0 
324.44595 540.32513 -2335.0 
313.4258 544.0275 -2351.0 
302.22534 547.73004 -2367.0 
290.96674 551.6638 -2384.0 
277.53754 551.6638 -2384.0 
265.8808 555.3663 -2400.0 
252.36147 555.3663 -2400.0 
240.53386 559.3002 -2417.0 
226.91876 559.3002 -2417.0 
214.80394 563.23395 -2434.0 
202.49753 567.1678 -2451.0 
190.07664 571.33307 -2469.0 
177.45287 575.49835 -2487.0 
162.26053 571.33307 -2469.0 
149.43407 575.49835 -2487.0 
28.259333 1741.3047 -7525.0 
-14.444844 1780.1803 -7693.0 
-56.518665 1741.3047 -7525.0 
-96.80438 1704.2803 -7365.0 
-138.29182 1704.2803 -7365.0 
-179.77925 1704.2803 -7365.0 
-226.07358 1741.3047 -7525.0 
-274.45645 1780.1803 -7693.0 
-325.02063 1820.6758 -7868.0 
-361.12662 1780.1803 -7693.0 
-404.4617 1780.1803 -7693.0 
-692.35126 1741.3047 -7525.0 
-751.14343 1780.1803 -7693.0 
-794.4785 1780.1803 -7693.0 
-856.8722 1820.6758 -7868.0 
-861.9061 1741.3047 -7525.0 
-885.0679 1704.2803 -7365.0 
-926.5553 1704.2803 -7365.0 
-968.0427 1704.2803 -7365.0 
-1009.5302 1704.2803 -7365.0 
-1073.8503 1741.3047 -7525.0 
-1092.5056 1704.2803 -7365.0 
-1133.993 1704.2803 -7365.0 
-1175.4805 1704.2803 -7365.0 
-1216.9679 1704.2803 -7365.0 
-1232.1414 1668.6443 -7211.0 
-1272.762 1668.6443 -7211.0 
-1341.4308 1704.2803 -7365.0 
-1354.0018 1668.6443 -7211.0 
-1394.6218 1668.6443 -7211.0 
-1465.8932 1704.2803 -7365.0 
-1507.381 1704.2803 -7365.0 
-1548.8685 1704.2803 -7365.0 
-1590.356 1704.2803 -7365.0 
-1631.8434 1704.2803 -7365.0 
-1709.683 1741.3047 -7525.0 
-1791.1882 1780.1803 -7693.0 
-1794.4609 1741.3047 -7525.0 
-1877.8584 1780.1803 -7693.0 
-1964.8966 1820.6758 -7868.0 
-1964.5286 1780.1803 -7693.0 
-1964.0162 1741.3047 -7525.0 
-2006.4052 1741.3047 -7525.0 
-2048.7937 1741.3047 -7525.0 
-2137.8694 1780.1803 -7693.0 
-2181.2046 1780.1803 -7693.0 
-2275.1438 1820.6758 -7868.0 
-2319.4648 1820.6758 -7868.0 
-2260.738 1741.3047 -7525.0 
-2254.1565 1704.2803 -7365.0 
-2295.644 1704.2803 -7365.0 
-2387.9045 1741.3047 -7525.0 
-2541.0696 1820.6758 -7868.0 
-2527.8862 1780.1803 -7693.0 
-2515.071 1741.3047 -7525.0 
-2614.5564 1780.1803 -7693.0 
-2718.3538 1820.6758 -7868.0 
-2701.2273 1780.1803 -7693.0 
-2744.5623 1780.1803 -7693.0 
-2787.8972 1780.1803 -7693.0 
-3117.242 1820.6758 -7868.0 
-3161.5635 1820.6758 -7868.0 
-3134.579 1780.1803 -7693.0 
-3250.205 1820.6758 -7868.0 
-3221.2493 1780.1803 -7693.0 
-3437.925 1780.1803 -7693.0 
-3481.2603 1780.1803 -7693.0 
-3604.7734 1820.6758 -7868.0 
-3567.9312 1780.1803 -7693.0 
-3532.403 1741.3047 -7525.0 
-3654.601 1780.1803 -7693.0 
-3697.936 1780.1803 -7693.0 
-3659.5698 1741.3047 -7525.0 
-3623.2456 1704.2803 -7365.0 
-3744.3474 1741.3047 -7525.0 
-3786.736 1741.3047 -7525.0 
-4136.625 1820.6758 -7868.0 
-4087.9531 1780.1803 -7693.0 
-4225.2666 1820.6758 -7868.0 
-4473.625 1907.6831 -8244.0 
-4996.524 2108.7722 -9113.0 
-4261.294 1780.1803 -7693.0 
-4121.096 1704.2803 -7365.0 
-4446.871 1820.6758 -7868.0 
-4434.635 1780.1803 -7693.0 
-4477.9697 1780.1803 -7693.0 
-4422.569 1741.3047 -7525.0 
-4370.0215 1704.2803 -7365.0 
-4411.5093 1704.2803 -7365.0 
1024.2683 395.98068 -1754.0 
1019.59283 398.0125 -1763.0 
1009.66174 398.0125 -1763.0 
1004.8342 400.04434 -1772.0 
999.9052 402.07617 -1781.0 
989.8728 402.07617 -1781.0 
984.79175 404.108 -1790.0 
980.1539 406.36557 -1800.0 
970.01434 406.36557 -1800.0 
964.67413 408.3974 -1809.0 
959.7603 410.655 -1819.0 
954.2117 412.68683 -1828.0 
954.24176 417.202 -1848.0 
943.83185 417.202 -1848.0 
938.4729 419.4596 -1858.0 
933.00134 421.71716 -1868.0 
922.4787 421.71716 -1868.0 
911.9562 421.71716 -1868.0 
901.43365 421.71716 -1868.0 
895.68036 423.97476 -1878.0 
889.81445 426.23233 -1888.0 
884.3016 428.7157 -1899.0 
878.2047 430.97327 -1909.0 
872.4496 433.45663 -1920.0 
861.6341 433.45663 -1920.0 
850.8186 433.45663 -1920.0 
844.81555 435.93997 -1931.0 
833.9382 435.93997 -1931.0 
827.3231 438.19754 -1941.0 
821.0159 440.6809 -1952.0 
810.02014 440.6809 -1952.0 
803.93646 443.39 -1964.0 
792.8731 443.39 -1964.0 
786.18854 445.87335 -1975.0 
775.06323 445.87335 -1975.0 
768.1928 448.3567 -1986.0 
757.00543 448.3567 -1986.0 
754.45557 453.54913 -2009.0 
743.1388 453.54913 -2009.0 
736.1932 456.25824 -2021.0 
724.8088 456.25824 -2021.0 
717.66034 458.96735 -2033.0 
706.2084 458.96735 -2033.0 
698.8572 461.67645 -2045.0 
691.37085 464.38556 -2057.0 
679.7836 464.38556 -2057.0 
668.19635 464.38556 -2057.0 
660.4397 467.09467 -2069.0 
648.78485 467.09467 -2069.0 
641.1333 470.0295 -2082.0 
633.3352 472.9644 -2095.0 
625.094 475.6735 -2107.0 
613.22516 475.6735 -2107.0 
601.3563 475.6735 -2107.0 
593.1245 478.60834 -2120.0 
584.7463 481.5432 -2133.0 
579.98065 487.6387 -2160.0 
567.81323 487.6387 -2160.0 
555.6459 487.6387 -2160.0 
543.4784 487.6387 -2160.0 
531.311 487.6387 -2160.0 
519.1435 487.6387 -2160.0 
510.2621 490.79932 -2174.0 
498.0158 490.79932 -2174.0 
488.67426 493.7342 -2187.0 
482.4535 500.05542 -2215.0 
473.1589 503.4418 -2230.0 
460.5972 503.4418 -2230.0 
450.84827 506.60242 -2244.0 
441.1368 509.9888 -2259.0 
428.41174 509.9888 -2259.0 
418.4468 513.3752 -2274.0 
405.63724 513.3752 -2274.0 
395.41885 516.76154 -2289.0 
385.03146 520.14795 -2304.0 
374.6366 523.7601 -2320.0 
363.90555 527.1465 -2335.0 
353.15582 530.7586 -2351.0 
339.9125 530.7586 -2351.0 
326.6691 530.7586 -2351.0 
313.4258 530.7586 -2351.0 
304.39594 538.2086 -2384.0 
290.96674 538.2086 -2384.0 
277.53754 538.2086 -2384.0 
265.8808 541.8208 -2400.0 
252.36147 541.8208 -2400.0 
240.53386 545.6587 -2417.0 
226.91876 545.6587 -2417.0 
213.30367 545.6587 -2417.0 
201.09299 549.4966 -2434.0 
190.07664 557.39813 -2469.0 
177.45287 561.4618 -2487.0 
162.26053 557.39813 -2469.0 
149.43407 561.4618 -2487.0 
28.259333 1698.8339 -7525.0 
-15.117046 1817.5829 -8051.0 
-60.46934 1817.5829 -8051.0 
-101.11556 1736.7614 -7693.0 
-141.29613 1698.8339 -7525.0 
-187.78574 1736.7614 -7693.0 
-231.1208 1736.7614 -7693.0 
-274.45645 1736.7614 -7693.0 
-325.02063 1776.2692 -7868.0 
-361.12662 1736.7614 -7693.0 
-413.66238 1776.2692 -7868.0 
-692.35126 1698.8339 -7525.0 
-734.7399 1698.8339 -7525.0 
-777.12866 1698.8339 -7525.0 
-837.8136 1736.7614 -7693.0 
-881.14874 1736.7614 -7693.0 
-904.2954 1698.8339 -7525.0 
-926.5553 1662.7125 -7365.0 
-968.0427 1662.7125 -7365.0 
-1009.5302 1662.7125 -7365.0 
-1051.0176 1662.7125 -7365.0 
-1092.5056 1662.7125 -7365.0 
-1133.993 1662.7125 -7365.0 
-1175.4805 1662.7125 -7365.0 
-1191.5215 1627.9457 -7211.0 
-1232.1414 1627.9457 -7211.0 
-1299.9432 1662.7125 -7365.0 
-1313.3818 1627.9457 -7211.0 
-1326.3998 1594.7592 -7064.0 
-1394.6218 1627.9457 -7211.0 
-1435.2417 1627.9457 -7211.0 
-1507.381 1662.7125 -7365.0 
-1516.482 1627.9457 -7211.0 
-1590.356 1662.7125 -7365.0 
-1667.2941 1698.8339 -7525.0 
-1747.8525 1736.7614 -7693.0 
-1791.1882 1736.7614 -7693.0 
-1834.5233 1736.7614 -7693.0 
-1877.8584 1736.7614 -7693.0 
-1964.8966 1776.2692 -7868.0 
-2055.9495 1817.5829 -8051.0 
-2053.5388 1776.2692 -7868.0 
-2051.1992 1736.7614 -7693.0 
-2142.1807 1776.2692 -7868.0 
-2186.5015 1776.2692 -7868.0 
-2230.8225 1776.2692 -7868.0 
-2275.1438 1776.2692 -7868.0 
-2319.4648 1776.2692 -7868.0 
-2418.7644 1817.5829 -8051.0 
-2452.4272 1776.2692 -7868.0 
-2496.7488 1776.2692 -7868.0 
-2541.0696 1776.2692 -7868.0 
-2585.3904 1776.2692 -7868.0 
-2629.7112 1776.2692 -7868.0 
-2674.032 1776.2692 -7868.0 
-2781.579 1817.5829 -8051.0 
-2762.6746 1776.2692 -7868.0 
-2806.9954 1776.2692 -7868.0 
-2917.6345 1817.5829 -8051.0 
-2962.986 1817.5829 -8051.0 
-3161.5635 1776.2692 -7868.0 
-3205.8843 1776.2692 -7868.0 
-3250.205 1776.2692 -7868.0 
-3294.526 1776.2692 -7868.0 
-3338.8467 1776.2692 -7868.0 
-3516.1309 1776.2692 -7868.0 
-3643.2637 1817.5829 -8051.0 
-3688.6157 1817.5829 -8051.0 
-3649.0942 1776.2692 -7868.0 
-3611.266 1736.7614 -7693.0 
-3737.7358 1776.2692 -7868.0 
-3782.0566 1776.2692 -7868.0 
-3659.5698 1698.8339 -7525.0 
-3784.607 1736.7614 -7693.0 
-3827.9421 1736.7614 -7693.0 
-3786.736 1698.8339 -7525.0 
-3829.1248 1698.8339 -7525.0 
-3957.948 1736.7614 -7693.0 
-4001.283 1736.7614 -7693.0 
-4136.625 1776.2692 -7868.0 
-4180.946 1776.2692 -7868.0 
-4225.2666 1776.2692 -7868.0 
-4368.893 1817.5829 -8051.0 
-4358.2295 1776.2692 -7868.0 
-4402.5503 1776.2692 -7868.0 
-4446.871 1776.2692 -7868.0 
-4434.635 1736.7614 -7693.0 
-4477.9697 1736.7614 -7693.0 
-4521.305 1736.7614 -7693.0 
-4564.64 1736.7614 -7693.0 
1029.5239 388.06223 -1763.0 
1019.59283 388.06223 -1763.0 
1014.816 390.04324 -1772.0 
1004.8342 390.04324 -1772.0 
999.9052 392.0243 -1781.0 
989.8728 392.0243 -1781.0 
984.79175 394.0053 -1790.0 
980.1539 396.20645 -1800.0 
970.01434 396.20645 -1800.0 
964.67413 398.18747 -1809.0 
959.7603 400.38864 -1819.0 
959.43164 404.5708 -1838.0 
954.24176 406.77197 -1848.0 
943.83185 406.77197 -1848.0 
938.4729 408.9731 -1858.0 
933.00134 411.17426 -1868.0 
922.4787 411.17426 -1868.0 
911.9562 411.17426 -1868.0 
901.43365 411.17426 -1868.0 
895.68036 413.3754 -1878.0 
889.81445 415.57654 -1888.0 
879.1792 415.57654 -1888.0 
873.6044 417.9978 -1899.0 
867.4512 420.19894 -1909.0 
856.69763 420.19894 -1909.0 
850.8186 422.6202 -1920.0 
844.81555 425.0415 -1931.0 
833.9382 425.0415 -1931.0 
827.3231 427.24265 -1941.0 
821.0159 429.66388 -1952.0 
814.9998 432.30527 -1964.0 
803.93646 432.30527 -1964.0 
792.8731 432.30527 -1964.0 
781.80975 432.30527 -1964.0 
775.06323 434.7265 -1975.0 
768.1928 437.1478 -1986.0 
761.5795 439.78915 -1998.0 
754.45557 442.21042 -2009.0 
743.1388 442.21042 -2009.0 
731.8219 442.21042 -2009.0 
724.8088 444.8518 -2021.0 
713.42426 444.8518 -2021.0 
706.2084 447.49316 -2033.0 
698.8572 450.13455 -2045.0 
687.3376 450.13455 -2045.0 
679.7836 452.77594 -2057.0 
668.19635 452.77594 -2057.0 
660.4397 455.4173 -2069.0 
648.78485 455.4173 -2069.0 
641.1333 458.2788 -2082.0 
633.3352 461.1403 -2095.0 
625.094 463.78165 -2107.0 
613.22516 463.78165 -2107.0 
601.3563 463.78165 -2107.0 
593.1245 466.64316 -2120.0 
584.7463 469.50464 -2133.0 
576.49005 472.58624 -2147.0 
564.3959 472.58624 -2147.0 
555.6459 475.44772 -2160.0 
543.4784 475.44772 -2160.0 
531.311 475.44772 -2160.0 
519.1435 475.44772 -2160.0 
510.2621 478.52936 -2174.0 
500.99387 481.3908 -2187.0 
491.8025 484.47244 -2201.0 
482.4535 487.55405 -2215.0 
473.1589 490.85577 -2230.0 
460.5972 490.85577 -2230.0 
450.84827 493.9374 -2244.0 
441.1368 497.2391 -2259.0 
428.41174 497.2391 -2259.0 
415.6866 497.2391 -2259.0 
405.63724 500.54083 -2274.0 
395.41885 503.84256 -2289.0 
385.03146 507.1443 -2304.0 
374.6366 510.66608 -2320.0 
363.90555 513.9678 -2335.0 
353.15582 517.4897 -2351.0 
339.9125 517.4897 -2351.0 
328.8923 521.0115 -2367.0 
315.55887 521.0115 -2367.0 
302.22534 521.0115 -2367.0 
290.96674 524.7535 -2384.0 
277.53754 524.7535 -2384.0 
265.8808 528.27527 -2400.0 
252.36147 528.27527 -2400.0 
240.53386 532.0172 -2417.0 
226.91876 532.0172 -2417.0 
213.30367 532.0172 -2417.0 
201.09299 535.7592 -2434.0 
190.07664 543.4632 -2469.0 
177.45287 547.42523 -2487.0 
163.44347 547.42523 -2487.0 
149.43407 547.42523 -2487.0 
-14.773434 1731.8624 -7868.0 
-59.094864 1731.8624 -7868.0 
-103.41573 1731.8624 -7868.0 
-147.7366 1731.8624 -7868.0 
-196.52449 1772.1434 -8051.0 
-241.8762 1772.1434 -8051.0 
-287.2285 1772.1434 -8051.0 
-325.02063 1731.8624 -7868.0 
-353.24033 1656.363 -7525.0 
-404.4617 1693.3424 -7693.0 
-707.80835 1693.3424 -7693.0 
-734.7399 1656.363 -7525.0 
-777.12866 1656.363 -7525.0 
-819.51746 1656.363 -7525.0 
-861.9061 1656.363 -7525.0 
-924.4843 1693.3424 -7693.0 
-946.6841 1656.363 -7525.0 
-968.0427 1621.1447 -7365.0 
-988.4212 1587.2471 -7211.0 
-1051.0176 1621.1447 -7365.0 
-1069.6616 1587.2471 -7211.0 
-1133.993 1621.1447 -7365.0 
-1175.4805 1621.1447 -7365.0 
-1191.5215 1587.2471 -7211.0 
-1232.1414 1587.2471 -7211.0 
-1272.762 1587.2471 -7211.0 
-1313.3818 1587.2471 -7211.0 
-1326.3998 1554.8903 -7064.0 
-1394.6218 1587.2471 -7211.0 
-1435.2417 1587.2471 -7211.0 
-1475.8622 1587.2471 -7211.0 
-1516.482 1587.2471 -7211.0 
-1590.356 1621.1447 -7365.0 
-1631.8434 1621.1447 -7365.0 
-1747.8525 1693.3424 -7693.0 
-1874.5426 1772.1434 -8051.0 
-1919.8943 1772.1434 -8051.0 
-1965.246 1772.1434 -8051.0 
-2010.5978 1772.1434 -8051.0 
-2101.3018 1772.1434 -8051.0 
-2097.8599 1731.8624 -7868.0 
-2192.0051 1772.1434 -8051.0 
-2237.357 1772.1434 -8051.0 
-2230.8225 1731.8624 -7868.0 
-2275.1438 1731.8624 -7868.0 
-2373.4126 1772.1434 -8051.0 
-2418.7644 1772.1434 -8051.0 
-2464.1162 1772.1434 -8051.0 
-2554.8198 1772.1434 -8051.0 
-2600.1716 1772.1434 -8051.0 
-2645.5234 1772.1434 -8051.0 
-2690.8752 1772.1434 -8051.0 
-2736.227 1772.1434 -8051.0 
-2781.579 1772.1434 -8051.0 
-2826.931 1772.1434 -8051.0 
-2872.2827 1772.1434 -8051.0 
-2917.6345 1772.1434 -8051.0 
-2962.986 1772.1434 -8051.0 
-3008.3381 1772.1434 -8051.0 
-3053.69 1772.1434 -8051.0 
-3189.7454 1772.1434 -8051.0 
-3235.0974 1772.1434 -8051.0 
-3205.8843 1731.8624 -7868.0 
-3325.801 1772.1434 -8051.0 
-3371.1528 1772.1434 -8051.0 
-3416.5044 1772.1434 -8051.0 
-3461.8564 1772.1434 -8051.0 
-3507.2083 1772.1434 -8051.0 
-3552.56 1772.1434 -8051.0 
-3597.9119 1772.1434 -8051.0 
-3643.2637 1772.1434 -8051.0 
-3777.04 1814.6256 -8244.0 
-3733.9675 1772.1434 -8051.0 
-3693.415 1731.8624 -7868.0 
-3824.6711 1772.1434 -8051.0 
-3870.0227 1772.1434 -8051.0 
-3915.3748 1772.1434 -8051.0 
-4055.674 1814.6256 -8244.0 
-4102.113 1814.6256 -8244.0 
-3786.736 1656.363 -7525.0 
-3829.1248 1656.363 -7525.0 
-3957.948 1693.3424 -7693.0 
-4001.283 1693.3424 -7693.0 
-4232.8374 1772.1434 -8051.0 
-4278.1895 1772.1434 -8051.0 
-4358.2295 1731.8624 -7868.0 
-4504.9487 1772.1434 -8051.0 
-4550.3003 1772.1434 -8051.0 
-4595.6523 1772.1434 -8051.0 
-4535.5137 1731.8624 -7868.0 
-4477.9697 1693.3424 -7693.0 
-4731.7075 1772.1434 -8051.0 
-4891.5757 1814.6256 -8244.0 
1029.5239 378.1119 -1763.0 
1019.59283 378.1119 -1763.0 
1014.816 380.0421 -1772.0 
1004.8342 380.0421 -1772.0 
994.8524 380.0421 -1772.0 
989.8728 381.97238 -1781.0 
984.79175 383.90262 -1790.0 
980.1539 386.04733 -1800.0 
974.86444 387.97754 -1809.0 
970.0068 390.12225 -1819.0 
964.509 392.05252 -1828.0 
959.43164 394.1972 -1838.0 
949.07806 394.1972 -1838.0 
943.83185 396.34192 -1848.0 
933.4219 396.34192 -1848.0 
928.00665 398.48663 -1858.0 
922.4787 400.63135 -1868.0 
911.9562 400.63135 -1868.0 
901.43365 400.63135 -1868.0 
895.68036 402.77603 -1878.0 
885.10144 402.77603 -1878.0 
879.1792 404.92075 -1888.0 
868.544 404.92075 -1888.0 
867.4512 409.42462 -1909.0 
856.69763 409.42462 -1909.0 
850.8186 411.7838 -1920.0 
844.81555 414.14297 -1931.0 
833.9382 414.14297 -1931.0 
823.0608 414.14297 -1931.0 
816.3893 416.2877 -1941.0 
810.02014 418.64688 -1952.0 
799.02435 418.64688 -1952.0 
792.8731 421.22052 -1964.0 
781.80975 421.22052 -1964.0 
775.06323 423.5797 -1975.0 
768.1928 425.93887 -1986.0 
761.5795 428.51254 -1998.0 
754.45557 430.8717 -2009.0 
743.1388 430.8717 -2009.0 
731.8219 430.8717 -2009.0 
724.8088 433.44534 -2021.0 
713.42426 433.44534 -2021.0 
706.2084 436.019 -2033.0 
698.8572 438.59265 -2045.0 
687.3376 438.59265 -2045.0 
679.7836 441.16632 -2057.0 
668.19635 441.16632 -2057.0 
660.4397 443.73993 -2069.0 
648.78485 443.73993 -2069.0 
637.13 443.73993 -2069.0 
629.4052 446.52808 -2082.0 
621.53394 449.3162 -2095.0 
613.22516 451.88986 -2107.0 
601.3563 451.88986 -2107.0 
593.1245 454.67795 -2120.0 
581.18243 454.67795 -2120.0 
572.7309 457.46606 -2133.0 
564.3959 460.4687 -2147.0 
555.6459 463.25677 -2160.0 
543.4784 463.25677 -2160.0 
531.311 463.25677 -2160.0 
522.50836 466.25937 -2174.0 
510.2621 466.25937 -2174.0 
500.99387 469.04752 -2187.0 
491.8025 472.0501 -2201.0 
482.4535 475.05264 -2215.0 
473.1589 478.2697 -2230.0 
460.5972 478.2697 -2230.0 
450.84827 481.2723 -2244.0 
438.2076 481.2723 -2244.0 
428.41174 484.48938 -2259.0 
415.6866 484.48938 -2259.0 
405.63724 487.70645 -2274.0 
395.41885 490.9235 -2289.0 
382.52475 490.9235 -2289.0 
372.0529 494.14056 -2304.0 
363.90555 500.78915 -2335.0 
353.15582 504.2207 -2351.0 
339.9125 504.2207 -2351.0 
328.8923 507.65222 -2367.0 
315.55887 507.65222 -2367.0 
302.22534 507.65222 -2367.0 
288.8919 507.65222 -2367.0 
277.53754 511.29822 -2384.0 
265.8808 514.72974 -2400.0 
252.36147 514.72974 -2400.0 
240.53386 518.3758 -2417.0 
226.91876 518.3758 -2417.0 
214.80394 522.0217 -2434.0 
203.98463 529.5282 -2469.0 
190.07664 529.5282 -2469.0 
176.16853 529.5282 -2469.0 
162.26053 529.5282 -2469.0 
148.35251 529.5282 -2469.0 
-108.35781 1768.0967 -8244.0 
