ply
format ascii 1.0
comment this is my Proccessing file
element vertex 1621
property float x
property float y
property float z
end_header
-1188.2676 -801.4546 -3087.0 
-1194.7212 -794.1852 -3059.0 
-1611.7108 -1056.1442 -4068.0 
-1597.2566 -1031.9994 -3975.0 
-1257.8248 -801.4546 -3087.0 
-1275.214 -801.4546 -3087.0 
-1280.8789 -794.1852 -3059.0 
-1298.1105 -794.1852 -3059.0 
-1598.706 -965.2763 -3718.0 
-1637.5105 -975.92096 -3759.0 
-1658.685 -975.92096 -3759.0 
-1698.1823 -986.5654 -3800.0 
-1372.5026 -787.43494 -3033.0 
-1389.5878 -787.43494 -3033.0 
-1406.6729 -787.43494 -3033.0 
-1489.0077 -823.5225 -3172.0 
-1520.6523 -831.0516 -3201.0 
-1497.3445 -808.724 -3115.0 
-1848.022 -986.5654 -3800.0 
-1504.8893 -794.1852 -3059.0 
-1522.1207 -794.1852 -3059.0 
-1539.3522 -794.1852 -3059.0 
-1912.7814 -975.92096 -3759.0 
-1933.9564 -975.92096 -3759.0 
-1955.131 -975.92096 -3759.0 
-1976.3057 -975.92096 -3759.0 
-1997.4802 -975.92096 -3759.0 
-2018.6548 -975.92096 -3759.0 
-2062.0786 -986.5654 -3800.0 
-2083.4841 -986.5654 -3800.0 
-2104.89 -986.5654 -3800.0 
-2103.3538 -975.92096 -3759.0 
-2124.5283 -975.92096 -3759.0 
-2145.7034 -975.92096 -3759.0 
-2166.878 -975.92096 -3759.0 
-2188.0527 -975.92096 -3759.0 
-2209.2273 -975.92096 -3759.0 
-2230.4019 -975.92096 -3759.0 
-2203.6582 -955.1511 -3679.0 
1517.7156 -689.4274 -2599.0 
1514.6418 -694.7327 -2619.0 
1511.3428 -700.0381 -2639.0 
1507.8185 -705.3434 -2659.0 
1492.8401 -705.3434 -2659.0 
1489.5334 -710.91394 -2680.0 
1497.5437 -722.0552 -2722.0 
1482.2104 -722.0552 -2722.0 
1478.1941 -727.6258 -2743.0 
1462.7424 -727.6258 -2743.0 
1471.0345 -739.56274 -2788.0 
1466.8134 -745.3986 -2810.0 
1463.3772 -751.765 -2834.0 
1459.1599 -757.86615 -2857.0 
1455.1886 -764.23254 -2881.0 
1450.9469 -770.5989 -2905.0 
1434.5829 -770.5989 -2905.0 
1430.4237 -777.2306 -2930.0 
1438.0471 -790.4939 -2980.0 
1433.6609 -797.3908 -3006.0 
1416.7279 -797.3908 -3006.0 
1412.3679 -804.55304 -3033.0 
1395.2828 -804.55304 -3033.0 
1402.7355 -818.87744 -3087.0 
1397.9116 -826.3049 -3115.0 
1392.7725 -833.73236 -3143.0 
1400.4426 -849.1178 -3201.0 
1382.4113 -849.1178 -3201.0 
1377.1669 -857.07574 -3231.0 
1372.005 -865.299 -3262.0 
1366.4941 -873.5223 -3293.0 
1360.6337 -881.7456 -3324.0 
1355.2317 -890.4993 -3357.0 
1336.3215 -890.4993 -3357.0 
1317.4113 -890.4993 -3357.0 
1311.2656 -899.2531 -3390.0 
1304.748 -908.00696 -3423.0 
1311.7538 -926.57556 -3493.0 
1305.0242 -935.8599 -3528.0 
1285.1506 -935.8599 -3528.0 
1278.5469 -945.6748 -3565.0 
1258.465 -945.6748 -3565.0 
1238.383 -945.6748 -3565.0 
1218.3013 -945.6748 -3565.0 
1198.2194 -945.6748 -3565.0 
1190.365 -955.48956 -3602.0 
1158.0554 -945.6748 -3565.0 
1137.9736 -945.6748 -3565.0 
1117.8918 -945.6748 -3565.0 
1109.2036 -955.48956 -3602.0 
1088.9135 -955.48956 -3602.0 
1068.623 -955.48956 -3602.0 
1048.3328 -955.48956 -3602.0 
1028.0425 -955.48956 -3602.0 
1007.7521 -955.48956 -3602.0 
977.31854 -945.6748 -3565.0 
957.2366 -945.6748 -3565.0 
946.88116 -955.48956 -3602.0 
926.59094 -955.48956 -3602.0 
915.86176 -965.56976 -3640.0 
895.3574 -965.56976 -3640.0 
874.85297 -965.56976 -3640.0 
819.8461 -926.57556 -3493.0 
792.1521 -917.29126 -3458.0 
772.6729 -917.29126 -3458.0 
738.38257 -899.2531 -3390.0 
719.2864 -899.2531 -3390.0 
707.00635 -908.00696 -3423.0 
694.75635 -917.29126 -3458.0 
675.27716 -917.29126 -3458.0 
655.79803 -917.29126 -3458.0 
636.31885 -917.29126 -3458.0 
623.08307 -926.57556 -3493.0 
603.4068 -926.57556 -3493.0 
583.7304 -926.57556 -3493.0 
510.08563 -935.8599 -3528.0 
490.2121 -935.8599 -3528.0 
470.33865 -935.8599 -3528.0 
445.99622 -926.57556 -3493.0 
426.31998 -926.57556 -3493.0 
406.64374 -926.57556 -3493.0 
386.96735 -926.57556 -3493.0 
367.29108 -926.57556 -3493.0 
337.3644 -899.2531 -3390.0 
74.397835 -955.48956 -3602.0 
54.107445 -955.48956 -3602.0 
33.817184 -955.48956 -3602.0 
13.669631 -965.56976 -3640.0 
-6.834685 -965.56976 -3640.0 
-27.339262 -965.56976 -3640.0 
-47.344112 -955.48956 -3602.0 
-66.93963 -945.6748 -3565.0 
-87.92463 -955.48956 -3602.0 
-108.21489 -955.48956 -3602.0 
-128.50542 -955.48956 -3602.0 
-148.79567 -955.48956 -3602.0 
-169.08592 -955.48956 -3602.0 
-189.37619 -955.48956 -3602.0 
-209.66644 -955.48956 -3602.0 
-229.95697 -955.48956 -3602.0 
-247.67667 -945.6748 -3565.0 
-267.7585 -945.6748 -3565.0 
-284.85294 -935.8599 -3528.0 
-488.65924 -945.6748 -3565.0 
-503.461 -935.8599 -3528.0 
-528.8232 -945.6748 -3565.0 
-649.31445 -945.6748 -3565.0 
-798.0855 -955.48956 -3602.0 
-818.3758 -955.48956 -3602.0 
-736.1463 -818.87744 -3087.0 
-760.3703 -826.3049 -3115.0 
-899.5371 -955.48956 -3602.0 
-929.53125 -965.56976 -3640.0 
-960.2148 -975.9151 -3679.0 
-980.9388 -975.9151 -3679.0 
-980.69836 -955.48956 -3602.0 
-873.4335 -833.73236 -3143.0 
-891.1382 -833.73236 -3143.0 
-925.6146 -849.1178 -3201.0 
-918.29346 -826.3049 -3115.0 
-935.8404 -826.3049 -3115.0 
-944.81757 -818.87744 -3087.0 
-962.2068 -818.87744 -3087.0 
-979.59625 -818.87744 -3087.0 
-996.9855 -818.87744 -3087.0 
-1014.37476 -818.87744 -3087.0 
-1392.731 -1105.3651 -4167.0 
-1049.1532 -818.87744 -3087.0 
-1066.5427 -818.87744 -3087.0 
-1083.9319 -818.87744 -3087.0 
-1101.3212 -818.87744 -3087.0 
-1128.8574 -826.3049 -3115.0 
-1170.8783 -818.87744 -3087.0 
-1199.0455 -826.3049 -3115.0 
-1205.6567 -818.87744 -3087.0 
-1631.1243 -1092.1018 -4117.0 
-1229.1843 -811.44995 -3059.0 
-1257.8248 -818.87744 -3087.0 
-1275.214 -818.87744 -3087.0 
-1292.6031 -818.87744 -3087.0 
-1309.9924 -818.87744 -3087.0 
-1315.342 -811.44995 -3059.0 
-1309.4856 -797.3908 -3006.0 
-1326.4186 -797.3908 -3006.0 
-1355.4176 -804.55304 -3033.0 
-1384.2682 -811.44995 -3059.0 
-1389.5878 -804.55304 -3033.0 
-1406.6729 -804.55304 -3033.0 
-1462.2506 -826.3049 -3115.0 
-1493.0991 -833.73236 -3143.0 
-1497.3445 -826.3049 -3115.0 
-1514.8917 -826.3049 -3115.0 
-1518.6641 -818.87744 -3087.0 
-1536.0532 -818.87744 -3087.0 
-1892.7975 -975.9151 -3679.0 
-1913.5214 -975.9151 -3679.0 
-1954.7498 -986.26056 -3718.0 
-1954.9694 -975.9151 -3679.0 
-1954.7496 -965.56976 -3640.0 
-1996.4177 -975.9151 -3679.0 
-2017.1417 -975.9151 -3679.0 
-2037.8656 -975.9151 -3679.0 
-2036.7672 -965.56976 -3640.0 
-2057.2715 -965.56976 -3640.0 
-2077.7761 -965.56976 -3640.0 
-2143.2434 -986.26056 -3718.0 
-2141.4858 -975.9151 -3679.0 
-2139.289 -965.56976 -3640.0 
-2159.7932 -965.56976 -3640.0 
-2180.2979 -965.56976 -3640.0 
1517.7156 -704.0961 -2599.0 
1514.6418 -709.51434 -2619.0 
1499.8889 -709.51434 -2619.0 
1507.8185 -720.3507 -2659.0 
1492.8401 -720.3507 -2659.0 
1501.2052 -731.729 -2701.0 
1497.5437 -737.4181 -2722.0 
1493.6455 -743.10724 -2743.0 
1478.1941 -743.10724 -2743.0 
1462.7424 -743.10724 -2743.0 
1471.0345 -755.29816 -2788.0 
1466.8134 -761.25824 -2810.0 
1463.3772 -767.7601 -2834.0 
1447.4132 -767.7601 -2834.0 
1455.1886 -780.49286 -2881.0 
1450.9469 -786.99475 -2905.0 
1434.5829 -786.99475 -2905.0 
1442.6288 -800.5402 -2955.0 
1438.0471 -807.313 -2980.0 
1433.6609 -814.3567 -3006.0 
1416.7279 -814.3567 -3006.0 
1412.3679 -821.6712 -3033.0 
1407.2437 -828.7149 -3059.0 
1402.7355 -836.3004 -3087.0 
1397.9116 -843.8859 -3115.0 
1392.7725 -851.4714 -3143.0 
1400.4426 -867.1842 -3201.0 
1382.4113 -867.1842 -3201.0 
1377.1669 -875.3115 -3231.0 
1358.9664 -875.3115 -3231.0 
1353.6301 -883.7097 -3262.0 
1347.9443 -892.1079 -3293.0 
1341.9094 -900.50616 -3324.0 
1336.3215 -909.4462 -3357.0 
1330.3617 -918.3863 -3390.0 
1311.2656 -918.3863 -3390.0 
1304.748 -927.3263 -3423.0 
1311.7538 -946.29 -3493.0 
1292.0775 -946.29 -3493.0 
1272.4011 -946.29 -3493.0 
1252.725 -946.29 -3493.0 
1245.4037 -955.77185 -3528.0 
1225.5303 -955.77185 -3528.0 
1205.6569 -955.77185 -3528.0 
1185.7833 -955.77185 -3528.0 
1165.9099 -955.77185 -3528.0 
1146.0364 -955.77185 -3528.0 
1114.9907 -946.29 -3493.0 
1106.2896 -955.77185 -3528.0 
1086.416 -955.77185 -3528.0 
1066.5426 -955.77185 -3528.0 
1046.6691 -955.77185 -3528.0 
1026.7957 -955.77185 -3528.0 
996.9329 -946.29 -3493.0 
987.0487 -955.77185 -3528.0 
967.1753 -955.77185 -3528.0 
947.30176 -955.77185 -3528.0 
927.42834 -955.77185 -3528.0 
907.5549 -955.77185 -3528.0 
887.6814 -955.77185 -3528.0 
867.8079 -955.77185 -3528.0 
847.93445 -955.77185 -3528.0 
795.67084 -918.3863 -3390.0 
792.1521 -936.80817 -3458.0 
772.6729 -936.80817 -3458.0 
745.5704 -927.3263 -3423.0 
726.2883 -927.3263 -3423.0 
714.2355 -936.80817 -3458.0 
701.7883 -946.29 -3493.0 
682.11194 -946.29 -3493.0 
662.43567 -946.29 -3493.0 
636.31885 -936.80817 -3458.0 
623.08307 -946.29 -3493.0 
603.4068 -946.29 -3493.0 
589.5794 -955.77185 -3528.0 
490.2121 -955.77185 -3528.0 
465.6726 -946.29 -3493.0 
445.99622 -946.29 -3493.0 
426.31998 -946.29 -3493.0 
406.64374 -946.29 -3493.0 
386.96735 -946.29 -3493.0 
367.29108 -946.29 -3493.0 
340.64847 -927.3263 -3423.0 
91.82274 -946.29 -3493.0 
72.86939 -955.77185 -3528.0 
53.55165 -965.79553 -3565.0 
33.469814 -965.79553 -3565.0 
13.526926 -975.81934 -3602.0 
-6.6938605 -965.79553 -3565.0 
-27.053852 -975.81934 -3602.0 
-46.371468 -955.77185 -3528.0 
-65.58769 -946.29 -3493.0 
-85.26395 -946.29 -3493.0 
-104.9402 -946.29 -3493.0 
-124.616714 -946.29 -3493.0 
-145.73878 -955.77185 -3528.0 
-167.34906 -965.79553 -3565.0 
-187.4309 -965.79553 -3565.0 
-207.51273 -965.79553 -3565.0 
-225.2327 -955.77185 -3528.0 
-245.10611 -955.77185 -3528.0 
-264.97952 -955.77185 -3528.0 
-284.85294 -955.77185 -3528.0 
-307.92218 -965.79553 -3565.0 
-473.99258 -936.80817 -3458.0 
-498.46634 -946.29 -3493.0 
-523.33466 -955.77185 -3528.0 
-543.20807 -955.77185 -3528.0 
-563.0815 -955.77185 -3528.0 
-582.9549 -955.77185 -3528.0 
-602.8283 -955.77185 -3528.0 
-622.702 -955.77185 -3528.0 
-642.5754 -955.77185 -3528.0 
-655.8769 -946.29 -3493.0 
-675.55316 -946.29 -3493.0 
-702.1956 -955.77185 -3528.0 
-722.06934 -955.77185 -3528.0 
-757.505 -975.81934 -3602.0 
-786.0008 -986.11383 -3640.0 
-789.8875 -965.79553 -3565.0 
-809.9694 -965.79553 -3565.0 
-830.05145 -965.79553 -3565.0 
-850.1333 -965.79553 -3565.0 
-870.21515 -965.79553 -3565.0 
-899.5371 -975.81934 -3602.0 
-919.82733 -975.81934 -3602.0 
-940.11786 -975.81934 -3602.0 
-950.5428 -965.79553 -3565.0 
-960.5508 -955.77185 -3528.0 
-980.4242 -955.77185 -3528.0 
-1000.29755 -955.77185 -3528.0 
-1010.05054 -946.29 -3493.0 
-1040.0447 -955.77185 -3528.0 
-1082.1499 -975.81934 -3602.0 
-1091.1158 -965.79553 -3565.0 
-1099.6649 -955.77185 -3528.0 
-1108.4321 -946.29 -3493.0 
-1128.1083 -946.29 -3493.0 
-1171.4435 -965.79553 -3565.0 
-1203.8917 -975.81934 -3602.0 
-1224.182 -975.81934 -3602.0 
-1244.4725 -975.81934 -3602.0 
-1226.4899 -946.29 -3493.0 
-1233.6794 -936.80817 -3458.0 
-1265.8424 -946.29 -3493.0 
-1298.3997 -955.77185 -3528.0 
-1332.0988 -965.79553 -3565.0 
-1338.1466 -955.77185 -3528.0 
-1350.5543 -936.80817 -3458.0 
-1403.5767 -946.29 -3493.0 
-1214.2267 -807.313 -2980.0 
-1275.214 -836.3004 -3087.0 
-1304.3275 -843.8859 -3115.0 
-1467.4292 -936.80817 -3458.0 
-1517.0078 -955.77185 -3528.0 
-1287.2687 -800.5402 -2955.0 
-1303.9144 -800.5402 -2955.0 
-1377.2177 -814.3567 -3006.0 
-1406.6729 -821.6712 -3033.0 
-1462.2506 -843.8859 -3115.0 
-1479.7976 -843.8859 -3115.0 
-1497.3445 -843.8859 -3115.0 
-1501.2747 -836.3004 -3087.0 
-1492.0984 -821.6712 -3033.0 
-1522.1207 -828.7149 -3059.0 
-1834.1459 -965.79553 -3565.0 
-1873.4722 -975.81934 -3602.0 
-1893.7623 -975.81934 -3602.0 
-1914.0526 -975.81934 -3602.0 
-1914.4731 -965.79553 -3565.0 
-1934.5553 -965.79553 -3565.0 
-1974.9237 -975.81934 -3602.0 
-1995.214 -975.81934 -3602.0 
-2036.7672 -986.11383 -3640.0 
-2057.2715 -986.11383 -3640.0 
-2034.9647 -965.79553 -3565.0 
-2076.3752 -975.81934 -3602.0 
-2096.6655 -975.81934 -3602.0 
-2095.2102 -965.79553 -3565.0 
-2115.292 -965.79553 -3565.0 
-2135.3743 -965.79553 -3565.0 
1517.7156 -718.7647 -2599.0 
1503.0752 -718.7647 -2599.0 
1499.8889 -724.2958 -2619.0 
1496.4772 -729.82684 -2639.0 
1492.8401 -735.358 -2659.0 
1501.2052 -746.97327 -2701.0 
1497.5437 -752.7809 -2722.0 
1482.2104 -752.7809 -2722.0 
1478.1941 -758.58856 -2743.0 
1462.7424 -758.58856 -2743.0 
1471.0345 -771.0335 -2788.0 
1466.8134 -777.1177 -2810.0 
1450.9845 -777.1177 -2810.0 
1447.4132 -783.75494 -2834.0 
1455.1886 -796.753 -2881.0 
1450.9469 -803.3903 -2905.0 
1446.9286 -810.3042 -2930.0 
1430.4237 -810.3042 -2930.0 
1425.983 -817.2181 -2955.0 
1421.2606 -824.1319 -2980.0 
1416.7279 -831.3223 -3006.0 
1412.3679 -838.7893 -3033.0 
1407.2437 -845.9797 -3059.0 
1402.7355 -853.7232 -3087.0 
1397.9116 -861.46674 -3115.0 
1392.7725 -869.21027 -3143.0 
1387.755 -877.23035 -3172.0 
1395.3673 -893.54706 -3231.0 
1377.1669 -893.54706 -3231.0 
1372.005 -902.12024 -3262.0 
1353.6301 -902.12024 -3262.0 
1347.9443 -910.6934 -3293.0 
1341.9094 -919.2666 -3324.0 
1349.4578 -937.51917 -3390.0 
1330.3617 -937.51917 -3390.0 
1324.0302 -946.6455 -3423.0 
1304.748 -946.6455 -3423.0 
1298.61 -956.3249 -3458.0 
1266.1842 -946.6455 -3423.0 
1234.8812 -937.51917 -3390.0 
1227.6201 -946.6455 -3423.0 
1208.3381 -946.6455 -3423.0 
1201.2142 -956.3249 -3458.0 
1193.6959 -966.00433 -3493.0 
1162.2559 -956.3249 -3458.0 
1131.2102 -946.6455 -3423.0 
1111.9282 -946.6455 -3423.0 
1092.6462 -946.6455 -3423.0 
1084.3394 -956.3249 -3458.0 
1064.8601 -956.3249 -3458.0 
1034.8003 -946.6455 -3423.0 
1015.5182 -946.6455 -3423.0 
986.6319 -937.51917 -3390.0 
967.5358 -937.51917 -3390.0 
948.4397 -937.51917 -3390.0 
938.3903 -946.6455 -3423.0 
919.1083 -946.6455 -3423.0 
899.8263 -946.6455 -3423.0 
880.5443 -946.6455 -3423.0 
861.26227 -946.6455 -3423.0 
841.98035 -946.6455 -3423.0 
814.7669 -937.51917 -3390.0 
780.17993 -919.2666 -3324.0 
776.5748 -937.51917 -3390.0 
764.85236 -946.6455 -3423.0 
738.38257 -937.51917 -3390.0 
719.2864 -937.51917 -3390.0 
707.00635 -946.6455 -3423.0 
694.75635 -956.3249 -3458.0 
675.27716 -956.3249 -3458.0 
655.79803 -956.3249 -3458.0 
636.31885 -956.3249 -3458.0 
616.8397 -956.3249 -3458.0 
597.36066 -956.3249 -3458.0 
577.8814 -956.3249 -3458.0 
547.4216 -937.51917 -3390.0 
480.48566 -956.3249 -3458.0 
461.00656 -956.3249 -3458.0 
437.0584 -946.6455 -3423.0 
422.04825 -956.3249 -3458.0 
406.64374 -966.00433 -3493.0 
386.96735 -966.00433 -3493.0 
363.6108 -956.3249 -3458.0 
340.64847 -946.6455 -3423.0 
90.90267 -956.3249 -3458.0 
72.146484 -966.00433 -3493.0 
52.995853 -975.6837 -3528.0 
33.12244 -975.6837 -3528.0 
-6.7633343 -996.14874 -3602.0 
-26.498053 -975.6837 -3528.0 
-45.911434 -966.00433 -3493.0 
-64.9305 -956.3249 -3458.0 
-85.26395 -966.00433 -3493.0 
-104.9402 -966.00433 -3493.0 
-124.616714 -966.00433 -3493.0 
-144.29297 -966.00433 -3493.0 
-163.96922 -966.00433 -3493.0 
-185.48561 -975.6837 -3528.0 
-205.35904 -975.6837 -3528.0 
-222.99825 -966.00433 -3493.0 
-240.24289 -956.3249 -3458.0 
-262.35077 -966.00433 -3493.0 
-279.20108 -956.3249 -3458.0 
-307.92218 -985.91614 -3565.0 
-469.19507 -946.6455 -3423.0 
-488.47705 -946.6455 -3423.0 
-507.75922 -946.6455 -3423.0 
-532.4302 -956.3249 -3458.0 
-551.90924 -956.3249 -3458.0 
-571.3883 -956.3249 -3458.0 
-590.86743 -956.3249 -3458.0 
-610.3468 -956.3249 -3458.0 
-629.82587 -956.3249 -3458.0 
-649.305 -956.3249 -3458.0 
-668.7841 -956.3249 -3458.0 
-688.2631 -956.3249 -3458.0 
-707.74255 -956.3249 -3458.0 
-727.2216 -956.3249 -3458.0 
-746.70074 -956.3249 -3458.0 
-773.9347 -966.00433 -3493.0 
-793.6109 -966.00433 -3493.0 
-813.2875 -966.00433 -3493.0 
-832.9637 -966.00433 -3493.0 
-844.0965 -956.3249 -3458.0 
-872.3162 -966.00433 -3493.0 
-883.0546 -956.3249 -3458.0 
-911.669 -966.00433 -3493.0 
-931.3452 -966.00433 -3493.0 
-951.0215 -966.00433 -3493.0 
-960.9713 -956.3249 -3458.0 
-990.37396 -966.00433 -3493.0 
-999.9298 -956.3249 -3458.0 
-1040.0447 -975.6837 -3528.0 
-1049.4031 -966.00433 -3493.0 
-1058.3671 -956.3249 -3458.0 
-1077.8462 -956.3249 -3458.0 
-1097.3256 -956.3249 -3458.0 
-1116.8046 -956.3249 -3458.0 
-1147.7845 -966.00433 -3493.0 
-1191.5253 -985.91614 -3565.0 
-1199.0322 -975.6837 -3528.0 
-1206.8136 -966.00433 -3493.0 
-1214.2003 -956.3249 -3458.0 
-1233.6794 -956.3249 -3458.0 
-1265.8424 -966.00433 -3493.0 
-1285.5187 -966.00433 -3493.0 
-1305.1951 -966.00433 -3493.0 
-1311.5961 -956.3249 -3458.0 
-1331.0752 -956.3249 -3458.0 
-1350.5543 -956.3249 -3458.0 
-1370.0334 -956.3249 -3458.0 
-1389.5127 -956.3249 -3458.0 
-1423.2529 -966.00433 -3493.0 
-1428.471 -956.3249 -3458.0 
-1433.2947 -946.6455 -3423.0 
-1467.4292 -956.3249 -3458.0 
-1471.8588 -946.6455 -3423.0 
-1506.3876 -956.3249 -3458.0 
-1510.4227 -946.6455 -3423.0 
-1553.1497 -937.51917 -3390.0 
-1512.8807 -902.12024 -3262.0 
-1516.7036 -893.54706 -3231.0 
-1534.9039 -893.54706 -3231.0 
-1492.0984 -838.7893 -3033.0 
-1509.1835 -838.7893 -3033.0 
-1797.1028 -966.00433 -3493.0 
-1816.779 -966.00433 -3493.0 
-1854.8567 -975.6837 -3528.0 
-1856.1316 -966.00433 -3493.0 
-1894.6035 -975.6837 -3528.0 
-1895.4843 -966.00433 -3493.0 
-1934.3506 -975.6837 -3528.0 
-1974.719 -985.91614 -3565.0 
-1994.8009 -985.91614 -3565.0 
-1974.1895 -966.00433 -3493.0 
-1973.8872 -956.3249 -3458.0 
-2013.5421 -966.00433 -3493.0 
-2033.2184 -966.00433 -3493.0 
-2052.8945 -966.00433 -3493.0 
-2072.571 -966.00433 -3493.0 
-2071.283 -956.3249 -3458.0 
1506.6204 -728.07166 -2580.0 
1503.0752 -733.4334 -2599.0 
1499.8889 -739.0774 -2619.0 
1507.8185 -750.36536 -2659.0 
1492.8401 -750.36536 -2659.0 
1489.5334 -756.2915 -2680.0 
1485.9901 -762.21765 -2701.0 
1482.2104 -768.14386 -2722.0 
1478.1941 -774.07 -2743.0 
1474.4744 -780.2784 -2765.0 
1471.0345 -786.7689 -2788.0 
1466.8134 -792.9773 -2810.0 
1450.9845 -792.9773 -2810.0 
1447.4132 -799.75006 -2834.0 
1443.0662 -806.2406 -2857.0 
1450.9469 -819.78613 -2905.0 
1434.5829 -819.78613 -2905.0 
1430.4237 -826.84106 -2930.0 
1425.983 -833.89606 -2955.0 
1421.2606 -840.951 -2980.0 
1416.7279 -848.28815 -3006.0 
1412.3679 -855.90753 -3033.0 
1407.2437 -863.2447 -3059.0 
1402.7355 -871.14624 -3087.0 
1385.3461 -871.14624 -3087.0 
1392.7725 -886.94934 -3143.0 
1387.755 -895.13306 -3172.0 
1382.4113 -903.31683 -3201.0 
1377.1669 -911.7828 -3231.0 
1372.005 -920.53094 -3262.0 
1366.4941 -929.27905 -3293.0 
1347.9443 -929.27905 -3293.0 
1341.9094 -938.0272 -3324.0 
1336.3215 -947.3398 -3357.0 
1330.3617 -956.6523 -3390.0 
1298.5011 -947.3398 -3357.0 
1279.5907 -947.3398 -3357.0 
1260.6807 -947.3398 -3357.0 
1241.7705 -947.3398 -3357.0 
1222.8601 -947.3398 -3357.0 
1203.9501 -947.3398 -3357.0 
1185.0398 -947.3398 -3357.0 
1177.5929 -956.6523 -3390.0 
1158.4968 -956.6523 -3390.0 
1139.4006 -956.6523 -3390.0 
1120.3046 -956.6523 -3390.0 
1090.4886 -947.3398 -3357.0 
1071.5785 -947.3398 -3357.0 
1052.6683 -947.3398 -3357.0 
1023.596 -938.0272 -3324.0 
1004.87177 -938.0272 -3324.0 
986.1474 -938.0272 -3324.0 
977.02747 -947.3398 -3357.0 
958.1173 -947.3398 -3357.0 
939.20703 -947.3398 -3357.0 
920.29694 -947.3398 -3357.0 
892.5258 -938.0272 -3324.0 
882.47644 -947.3398 -3357.0 
863.5663 -947.3398 -3357.0 
844.65594 -947.3398 -3357.0 
825.74585 -947.3398 -3357.0 
798.90424 -938.0272 -3324.0 
780.17993 -938.0272 -3324.0 
769.01526 -947.3398 -3357.0 
750.1049 -947.3398 -3357.0 
731.1948 -947.3398 -3357.0 
719.2864 -956.6523 -3390.0 
700.19037 -956.6523 -3390.0 
681.09436 -956.6523 -3390.0 
661.99817 -956.6523 -3390.0 
642.90204 -956.6523 -3390.0 
623.8059 -956.6523 -3390.0 
604.70984 -956.6523 -3390.0 
585.6138 -956.6523 -3390.0 
561.00287 -947.3398 -3357.0 
531.7579 -929.27905 -3293.0 
498.8701 -903.31683 -3201.0 
480.59088 -938.0272 -3324.0 
471.0371 -956.6523 -3390.0 
451.9411 -956.6523 -3390.0 
432.8449 -956.6523 -3390.0 
413.74884 -956.6523 -3390.0 
394.6528 -956.6523 -3390.0 
379.2125 -965.96484 -3423.0 
359.93054 -965.96484 -3423.0 
337.3644 -956.6523 -3390.0 
192.55704 -826.84106 -2930.0 
176.05219 -826.84106 -2930.0 
107.1579 -947.3398 -3357.0 
88.24762 -947.3398 -3357.0 
70.01906 -956.6523 -3390.0 
51.4186 -965.96484 -3423.0 
30.916155 -929.27905 -3293.0 
-25.461563 -956.6523 -3390.0 
-44.991364 -965.96484 -3423.0 
-64.9305 -975.8418 -3458.0 
-84.4096 -975.8418 -3458.0 
-104.9402 -985.71875 -3493.0 
-123.36804 -975.8418 -3458.0 
-140.03812 -956.6523 -3390.0 
-157.58508 -947.3398 -3357.0 
-191.68007 -929.27905 -3293.0 
-210.22995 -929.27905 -3293.0 
-230.9333 -938.0272 -3324.0 
-249.65758 -938.0272 -3324.0 
-271.0463 -947.3398 -3357.0 
-307.92218 -1006.037 -3565.0 
-318.15955 -975.8418 -3458.0 
-460.14838 -947.3398 -3357.0 
-483.7678 -956.6523 -3390.0 
-497.96893 -947.3398 -3357.0 
-521.96014 -956.6523 -3390.0 
-535.78925 -947.3398 -3357.0 
-554.69946 -947.3398 -3357.0 
-573.6096 -947.3398 -3357.0 
-598.3446 -956.6523 -3390.0 
-611.4302 -947.3398 -3357.0 
-630.34033 -947.3398 -3357.0 
-655.63275 -956.6523 -3390.0 
-674.7288 -956.6523 -3390.0 
-687.07104 -947.3398 -3357.0 
-712.92114 -956.6523 -3390.0 
-732.0172 -956.6523 -3390.0 
-751.1132 -956.6523 -3390.0 
-762.7117 -947.3398 -3357.0 
-781.6221 -947.3398 -3357.0 
-800.5322 -947.3398 -3357.0 
-819.44244 -947.3398 -3357.0 
-846.59375 -956.6523 -3390.0 
-865.6898 -956.6523 -3390.0 
-884.7861 -956.6523 -3390.0 
-912.68097 -965.96484 -3423.0 
-931.96295 -965.96484 -3423.0 
-951.24493 -965.96484 -3423.0 
-961.17035 -956.6523 -3390.0 
-980.2666 -956.6523 -3390.0 
-1009.09094 -965.96484 -3423.0 
-1018.45874 -956.6523 -3390.0 
-1027.4547 -947.3398 -3357.0 
-1046.3649 -947.3398 -3357.0 
-1075.7471 -956.6523 -3390.0 
-1094.8431 -956.6523 -3390.0 
-1113.9392 -956.6523 -3390.0 
-1133.0353 -956.6523 -3390.0 
-1152.1313 -956.6523 -3390.0 
-1171.2275 -956.6523 -3390.0 
-1178.7365 -947.3398 -3357.0 
-1209.4197 -956.6523 -3390.0 
-1240.4749 -965.96484 -3423.0 
-1259.7567 -965.96484 -3423.0 
-1266.7081 -956.6523 -3390.0 
-1273.2876 -947.3398 -3357.0 
-1304.9003 -956.6523 -3390.0 
-1323.9963 -956.6523 -3390.0 
-1343.0923 -956.6523 -3390.0 
-1362.1887 -956.6523 -3390.0 
-1394.7308 -965.96484 -3423.0 
-1400.3807 -956.6523 -3390.0 
-1405.6588 -947.3398 -3357.0 
-1438.5728 -956.6523 -3390.0 
-1443.4794 -947.3398 -3357.0 
-1462.3896 -947.3398 -3357.0 
-1481.2998 -947.3398 -3357.0 
-1500.2098 -947.3398 -3357.0 
-1519.1201 -947.3398 -3357.0 
-1538.0305 -947.3398 -3357.0 
-1541.6356 -938.0272 -3324.0 
-1545.8077 -929.27905 -3293.0 
-1564.3574 -929.27905 -3293.0 
-1553.1044 -911.7828 -3231.0 
-1478.8157 -848.28815 -3006.0 
-1495.7485 -848.28815 -3006.0 
-1499.5978 -840.951 -2980.0 
-1490.9415 -826.84106 -2930.0 
-1797.1028 -985.71875 -3493.0 
-1816.779 -985.71875 -3493.0 
-1818.054 -975.8418 -3458.0 
-1877.7832 -956.6523 -3390.0 
-1934.9288 -975.8418 -3458.0 
-1934.6265 -965.96484 -3423.0 
-1953.9086 -965.96484 -3423.0 
-1954.1676 -956.6523 -3390.0 
-1973.2638 -956.6523 -3390.0 
-1972.9651 -947.3398 -3357.0 
-2011.4558 -956.6523 -3390.0 
-2010.7856 -947.3398 -3357.0 
1517.7156 -748.1022 -2599.0 
1503.0752 -748.1022 -2599.0 
1499.8889 -753.859 -2619.0 
1496.4772 -759.61584 -2639.0 
1492.8401 -765.37274 -2659.0 
1489.5334 -771.41736 -2680.0 
1485.9901 -777.46204 -2701.0 
1482.2104 -783.5068 -2722.0 
1478.1941 -789.55145 -2743.0 
1462.7424 -789.55145 -2743.0 
1471.0345 -802.50433 -2788.0 
1466.8134 -808.83685 -2810.0 
1450.9845 -808.83685 -2810.0 
1447.4132 -815.7451 -2834.0 
1443.0662 -822.3655 -2857.0 
1438.9597 -829.27374 -2881.0 
1434.5829 -836.1819 -2905.0 
1430.4237 -843.3779 -2930.0 
1425.983 -850.57404 -2955.0 
1421.2606 -857.7701 -2980.0 
1416.7279 -865.254 -3006.0 
1412.3679 -873.0257 -3033.0 
1407.2437 -880.50964 -3059.0 
1390.0122 -880.50964 -3059.0 
1385.3461 -888.5692 -3087.0 
1380.3645 -896.6288 -3115.0 
1387.755 -913.0358 -3172.0 
1382.4113 -921.38324 -3201.0 
1377.1669 -930.0185 -3231.0 
1372.005 -938.9416 -3262.0 
1340.766 -930.0185 -3231.0 
1347.9443 -947.8647 -3293.0 
1329.3947 -947.8647 -3293.0 
1310.845 -947.8647 -3293.0 
1292.2952 -947.8647 -3293.0 
1273.7457 -947.8647 -3293.0 
1255.1959 -947.8647 -3293.0 
1236.6462 -947.8647 -3293.0 
1218.0966 -947.8647 -3293.0 
1199.5468 -947.8647 -3293.0 
1180.9972 -947.8647 -3293.0 
1162.4474 -947.8647 -3293.0 
1143.8977 -947.8647 -3293.0 
1125.3481 -947.8647 -3293.0 
1106.7983 -947.8647 -3293.0 
1088.2487 -947.8647 -3293.0 
1069.699 -947.8647 -3293.0 
1041.2539 -938.9416 -3262.0 
1022.87885 -938.9416 -3262.0 
1004.50366 -938.9416 -3262.0 
986.1287 -938.9416 -3262.0 
967.75354 -938.9416 -3262.0 
967.4231 -956.7878 -3324.0 
939.85114 -947.8647 -3293.0 
929.9744 -956.7878 -3324.0 
902.7518 -947.8647 -3293.0 
875.8782 -938.9416 -3262.0 
857.5032 -938.9416 -3262.0 
839.1282 -938.9416 -3262.0 
820.753 -938.9416 -3262.0 
802.37805 -938.9416 -3262.0 
776.5522 -930.0185 -3231.0 
765.6278 -938.9416 -3262.0 
747.2528 -938.9416 -3262.0 
735.8045 -947.8647 -3293.0 
717.2548 -947.8647 -3293.0 
705.28265 -956.7878 -3324.0 
686.55835 -956.7878 -3324.0 
667.83405 -956.7878 -3324.0 
643.056 -947.8647 -3293.0 
624.50635 -947.8647 -3293.0 
611.661 -956.7878 -3324.0 
592.93677 -956.7878 -3324.0 
574.21246 -956.7878 -3324.0 
550.30756 -947.8647 -3293.0 
526.75195 -938.9416 -3262.0 
494.3505 -913.0358 -3172.0 
476.48245 -913.0358 -3172.0 
476.10883 -947.8647 -3293.0 
461.86652 -956.7878 -3324.0 
443.1422 -956.7878 -3324.0 
424.41782 -956.7878 -3324.0 
405.69357 -956.7878 -3324.0 
390.81104 -966.2866 -3357.0 
371.90076 -966.2866 -3357.0 
352.9906 -966.2866 -3357.0 
330.79623 -956.7878 -3324.0 
315.17017 -966.2866 -3357.0 
190.91406 -836.1819 -2905.0 
177.55434 -850.57404 -2955.0 
159.54724 -843.3779 -2930.0 
122.50046 -938.9416 -3262.0 
105.114975 -947.8647 -3293.0 
86.56521 -947.8647 -3293.0 
67.375275 -938.9416 -3262.0 
49.000134 -938.9416 -3262.0 
-6.0667214 -930.0185 -3231.0 
-24.965853 -956.7878 -3324.0 
-43.690125 -956.7878 -3324.0 
-62.414394 -956.7878 -3324.0 
-79.62525 -938.9416 -3262.0 
-97.06894 -930.0185 -3231.0 
-117.48148 -947.8647 -3293.0 
-133.46997 -930.0185 -3231.0 
-151.67036 -930.0185 -3231.0 
-168.2935 -921.38324 -3201.0 
-189.87561 -938.9416 -3262.0 
-208.25085 -938.9416 -3262.0 
-224.47217 -930.0185 -3231.0 
-242.67258 -930.0185 -3231.0 
-260.873 -930.0185 -3231.0 
-281.75095 -938.9416 -3262.0 
-451.37582 -947.8647 -3293.0 
-469.92548 -947.8647 -3293.0 
-488.47534 -947.8647 -3293.0 
-511.7981 -956.7878 -3324.0 
-525.57465 -947.8647 -3293.0 
-549.24664 -956.7878 -3324.0 
-567.9709 -956.7878 -3324.0 
-586.69543 -956.7878 -3324.0 
-599.77344 -947.8647 -3293.0 
-618.3231 -947.8647 -3293.0 
-636.87274 -947.8647 -3293.0 
-655.4224 -947.8647 -3293.0 
-680.317 -956.7878 -3324.0 
-705.9812 -966.2866 -3357.0 
-717.76556 -956.7878 -3324.0 
-736.48987 -956.7878 -3324.0 
-755.21405 -956.7878 -3324.0 
-766.7207 -947.8647 -3293.0 
-792.66284 -956.7878 -3324.0 
-811.38715 -956.7878 -3324.0 
-838.3526 -966.2866 -3357.0 
-848.83563 -956.7878 -3324.0 
-876.17316 -966.2866 -3357.0 
-895.0833 -966.2866 -3357.0 
-913.99347 -966.2866 -3357.0 
-932.9036 -966.2866 -3357.0 
-942.4573 -956.7878 -3324.0 
-961.18176 -956.7878 -3324.0 
-979.906 -956.7878 -3324.0 
-998.6303 -956.7878 -3324.0 
-1017.3546 -956.7878 -3324.0 
-1036.0789 -956.7878 -3324.0 
-1065.2753 -966.2866 -3357.0 
-1084.1854 -966.2866 -3357.0 
-1092.252 -956.7878 -3324.0 
-1110.9762 -956.7878 -3324.0 
-1129.7004 -956.7878 -3324.0 
-1159.8263 -966.2866 -3357.0 
-1178.7365 -966.2866 -3357.0 
-1197.6466 -966.2866 -3357.0 
-1204.5978 -956.7878 -3324.0 
-1223.322 -956.7878 -3324.0 
-1242.0465 -956.7878 -3324.0 
-1260.7709 -956.7878 -3324.0 
-1279.4951 -956.7878 -3324.0 
-1286.112 -947.8647 -3293.0 
-1316.9437 -956.7878 -3324.0 
-1335.6681 -956.7878 -3324.0 
-1354.3925 -956.7878 -3324.0 
-1373.1167 -956.7878 -3324.0 
-1391.841 -956.7878 -3324.0 
-1410.5653 -956.7878 -3324.0 
-1429.2897 -956.7878 -3324.0 
-1434.5096 -947.8647 -3293.0 
-1466.7383 -956.7878 -3324.0 
-1485.4625 -956.7878 -3324.0 
-1504.1869 -956.7878 -3324.0 
-1522.9113 -956.7878 -3324.0 
-1541.6356 -956.7878 -3324.0 
-1545.8077 -947.8647 -3293.0 
-1564.3574 -947.8647 -3293.0 
-1568.0057 -938.9416 -3262.0 
-1542.612 -913.0358 -3172.0 
-1518.6641 -888.5692 -3087.0 
-1495.7485 -865.254 -3006.0 
-1474.4368 -843.3779 -2930.0 
-1478.2202 -836.1819 -2905.0 
-1469.8892 -822.3655 -2857.0 
-1474.02 -815.7451 -2834.0 
-1739.161 -913.0358 -3172.0 
-1773.0927 -921.38324 -3201.0 
-1758.6702 -904.68835 -3143.0 
-1792.7651 -913.0358 -3172.0 
-1897.3976 -956.7878 -3324.0 
-1916.122 -956.7878 -3324.0 
-1898.7571 -938.9416 -3262.0 
-1935.3513 -947.8647 -3293.0 
-1972.2948 -956.7878 -3324.0 
-2010.7856 -966.2866 -3357.0 
1517.7156 -762.77075 -2599.0 
1514.6418 -768.6405 -2619.0 
1499.8889 -768.6405 -2619.0 
1496.4772 -774.5102 -2639.0 
1492.8401 -780.37994 -2659.0 
1489.5334 -786.5431 -2680.0 
1485.9901 -792.7063 -2701.0 
1482.2104 -798.86957 -2722.0 
1478.1941 -805.0328 -2743.0 
1474.4744 -811.48944 -2765.0 
1471.0345 -818.2396 -2788.0 
1466.8134 -824.6963 -2810.0 
1450.9845 -824.6963 -2810.0 
1447.4132 -831.74005 -2834.0 
1431.449 -831.74005 -2834.0 
1438.9597 -845.5339 -2881.0 
1434.5829 -852.5775 -2905.0 
1430.4237 -859.9147 -2930.0 
1438.0471 -874.589 -2980.0 
1433.6609 -882.21967 -3006.0 
1416.7279 -882.21967 -3006.0 
1412.3679 -890.1438 -3033.0 
1420.1246 -905.992 -3087.0 
1402.7355 -905.992 -3087.0 
1385.3461 -905.992 -3087.0 
1392.7725 -922.42725 -3143.0 
1387.755 -930.9383 -3172.0 
1382.4113 -939.44946 -3201.0 
1364.3799 -939.44946 -3201.0 
1346.3483 -939.44946 -3201.0 
1340.766 -948.254 -3231.0 
1322.5654 -948.254 -3231.0 
1304.3651 -948.254 -3231.0 
1298.5049 -957.35205 -3262.0 
1267.9641 -948.254 -3231.0 
1249.7638 -948.254 -3231.0 
1231.5632 -948.254 -3231.0 
1225.0045 -957.35205 -3262.0 
1206.6295 -957.35205 -3262.0 
1176.9619 -948.254 -3231.0 
1148.0024 -939.44946 -3201.0 
1140.561 -948.254 -3231.0 
1122.3606 -948.254 -3231.0 
1104.1603 -948.254 -3231.0 
1085.9597 -948.254 -3231.0 
1067.7594 -948.254 -3231.0 
1049.5588 -948.254 -3231.0 
1031.3584 -948.254 -3231.0 
1003.75085 -939.44946 -3201.0 
994.9575 -948.254 -3231.0 
976.75714 -948.254 -3231.0 
949.6564 -939.44946 -3201.0 
931.62494 -939.44946 -3201.0 
905.3167 -930.9383 -3172.0 
895.562 -939.44946 -3201.0 
877.53064 -939.44946 -3201.0 
859.4991 -939.44946 -3201.0 
841.4677 -939.44946 -3201.0 
823.43634 -939.44946 -3201.0 
812.95306 -948.254 -3231.0 
787.3734 -939.44946 -3201.0 
769.34186 -939.44946 -3201.0 
751.3105 -939.44946 -3201.0 
740.1514 -948.254 -3231.0 
721.95087 -948.254 -3231.0 
697.2161 -939.44946 -3201.0 
685.55 -948.254 -3231.0 
673.7525 -957.35205 -3262.0 
649.1492 -948.254 -3231.0 
630.94867 -948.254 -3231.0 
612.7483 -948.254 -3231.0 
594.5477 -948.254 -3231.0 
570.996 -939.44946 -3201.0 
558.147 -948.254 -3231.0 
545.127 -957.35205 -3262.0 
516.9016 -939.44946 -3201.0 
494.3505 -930.9383 -3172.0 
476.48245 -930.9383 -3172.0 
467.14478 -948.254 -3231.0 
453.25165 -957.35205 -3262.0 
434.87665 -957.35205 -3262.0 
416.5015 -957.35205 -3262.0 
398.12646 -957.35205 -3262.0 
379.75146 -957.35205 -3262.0 
361.3763 -957.35205 -3262.0 
346.26096 -966.4502 -3293.0 
327.7112 -966.4502 -3293.0 
309.16156 -966.4502 -3293.0 
285.14032 -948.254 -3231.0 
180.61873 -882.21967 -3006.0 
139.53668 -948.254 -3231.0 
122.50046 -957.35205 -3262.0 
104.12543 -957.35205 -3262.0 
85.7503 -957.35205 -3262.0 
66.734985 -948.254 -3231.0 
49.000134 -957.35205 -3262.0 
30.334072 -948.254 -3231.0 
12.250092 -957.35205 -3262.0 
-6.0667214 -948.254 -3231.0 
-24.26735 -948.254 -3231.0 
-42.467747 -948.254 -3231.0 
-60.668144 -948.254 -3231.0 
-78.86854 -948.254 -3231.0 
-96.16765 -939.44946 -3201.0 
-115.26956 -948.254 -3231.0 
-133.46997 -948.254 -3231.0 
-151.67036 -948.254 -3231.0 
-169.87076 -948.254 -3231.0 
-188.07115 -948.254 -3231.0 
-206.27179 -948.254 -3231.0 
-224.47217 -948.254 -3231.0 
-240.41934 -939.44946 -3201.0 
-258.45074 -939.44946 -3201.0 
-276.48215 -939.44946 -3201.0 
-297.274 -948.254 -3231.0 
-312.5452 -939.44946 -3201.0 
-442.87738 -948.254 -3231.0 
-461.07782 -948.254 -3231.0 
-474.82828 -939.44946 -3201.0 
-497.47882 -948.254 -3231.0 
-510.8911 -939.44946 -3201.0 
-533.8796 -948.254 -3231.0 
-552.08 -948.254 -3231.0 
-570.28064 -948.254 -3231.0 
-588.481 -948.254 -3231.0 
-606.68146 -948.254 -3231.0 
-624.88184 -948.254 -3231.0 
-649.2523 -957.35205 -3262.0 
-667.62756 -957.35205 -3262.0 
-692.5219 -966.4502 -3293.0 
-704.3776 -957.35205 -3262.0 
-715.88403 -948.254 -3231.0 
-741.1277 -957.35205 -3262.0 
-759.5029 -957.35205 -3262.0 
-777.8779 -957.35205 -3262.0 
-788.68585 -948.254 -3231.0 
-814.628 -957.35205 -3262.0 
-833.003 -957.35205 -3262.0 
-851.37823 -957.35205 -3262.0 
-869.7533 -957.35205 -3262.0 
-888.1283 -957.35205 -3262.0 
-906.5033 -957.35205 -3262.0 
-924.87836 -957.35205 -3262.0 
-943.2536 -957.35205 -3262.0 
-961.6286 -957.35205 -3262.0 
-998.6303 -975.5482 -3324.0 
-1007.86664 -966.4502 -3293.0 
-1026.4163 -966.4502 -3293.0 
-1044.9661 -966.4502 -3293.0 
-1053.5039 -957.35205 -3262.0 
-1071.879 -957.35205 -3262.0 
-1100.6151 -966.4502 -3293.0 
-1119.1648 -966.4502 -3293.0 
-1137.7146 -966.4502 -3293.0 
-1145.3793 -957.35205 -3262.0 
-1163.7543 -957.35205 -3262.0 
-1182.1294 -957.35205 -3262.0 
-1200.5044 -957.35205 -3262.0 
-1207.2961 -948.254 -3231.0 
-1225.4966 -948.254 -3231.0 
-1243.6969 -948.254 -3231.0 
-1261.8973 -948.254 -3231.0 
-1280.0977 -948.254 -3231.0 
-1310.755 -957.35205 -3262.0 
-1329.13 -957.35205 -3262.0 
-1334.6991 -948.254 -3231.0 
-1352.8995 -948.254 -3231.0 
-1371.1 -948.254 -3231.0 
-1389.3007 -948.254 -3231.0 
-1407.501 -948.254 -3231.0 
-1439.3804 -957.35205 -3262.0 
-1457.7552 -957.35205 -3262.0 
-1476.1304 -957.35205 -3262.0 
-1508.7085 -966.4502 -3293.0 
-1527.258 -966.4502 -3293.0 
-1516.7036 -948.254 -3231.0 
-1534.9039 -948.254 -3231.0 
-1553.1044 -948.254 -3231.0 
-1542.612 -930.9383 -3172.0 
-1560.4801 -930.9383 -3172.0 
-1522.1207 -897.7744 -3059.0 
-1474.4368 -859.9147 -2930.0 
-1490.9415 -859.9147 -2930.0 
-1469.8892 -838.4902 -2857.0 
-1485.9827 -838.4902 -2857.0 
-1514.6945 -845.5339 -2881.0 
-1705.556 -922.42725 -3143.0 
-1707.9087 -914.20966 -3115.0 
-1725.4557 -914.20966 -3115.0 
-1711.6677 -897.7744 -3059.0 
-1698.9445 -882.21967 -3006.0 
-1715.8777 -882.21967 -3006.0 
-1732.8107 -882.21967 -3006.0 
-1765.4598 -890.1438 -3033.0 
-1814.2815 -905.992 -3087.0 
-1709.4408 -845.5339 -2881.0 
1506.6204 -771.75604 -2580.0 
1514.6418 -783.42206 -2619.0 
1499.8889 -783.42206 -2619.0 
1496.4772 -789.40466 -2639.0 
1492.8401 -795.38727 -2659.0 
1489.5334 -801.66907 -2680.0 
1485.9901 -807.95074 -2701.0 
1482.2104 -814.2325 -2722.0 
1478.1941 -820.5142 -2743.0 
1462.7424 -820.5142 -2743.0 
1458.8989 -827.0951 -2765.0 
1455.3293 -833.9751 -2788.0 
1450.9845 -840.55597 -2810.0 
1447.4132 -847.73505 -2834.0 
1431.449 -847.73505 -2834.0 
1438.9597 -861.7942 -2881.0 
1434.5829 -868.9733 -2905.0 
1430.4237 -876.4516 -2930.0 
1438.0471 -891.40814 -2980.0 
1433.6609 -899.1855 -3006.0 
1429.4531 -907.26196 -3033.0 
1412.3679 -907.26196 -3033.0 
1420.1246 -923.41504 -3087.0 
1402.7355 -923.41504 -3087.0 
1385.3461 -923.41504 -3087.0 
1380.3645 -931.79065 -3115.0 
1387.755 -948.8411 -3172.0 
1357.3629 -940.1663 -3143.0 
1339.6582 -940.1663 -3143.0 
1321.9534 -940.1663 -3143.0 
1304.2488 -940.1663 -3143.0 
1286.544 -940.1663 -3143.0 
1268.8392 -940.1663 -3143.0 
1262.6786 -948.8411 -3172.0 
1244.8103 -948.8411 -3172.0 
1226.9424 -948.8411 -3172.0 
1198.0203 -940.1663 -3143.0 
1191.2062 -948.8411 -3172.0 
1173.3381 -948.8411 -3172.0 
1144.906 -940.1663 -3143.0 
1127.2013 -940.1663 -3143.0 
1119.7338 -948.8411 -3172.0 
1101.8657 -948.8411 -3172.0 
1083.9977 -948.8411 -3172.0 
1056.3824 -940.1663 -3143.0 
1048.2615 -948.8411 -3172.0 
1030.3933 -948.8411 -3172.0 
1012.5252 -948.8411 -3172.0 
985.5635 -940.1663 -3143.0 
967.8587 -940.1663 -3143.0 
950.154 -940.1663 -3143.0 
932.4492 -940.1663 -3143.0 
914.74457 -940.1663 -3143.0 
897.03986 -940.1663 -3143.0 
879.3351 -940.1663 -3143.0 
869.5805 -948.8411 -3172.0 
843.9256 -940.1663 -3143.0 
826.2209 -940.1663 -3143.0 
808.5162 -940.1663 -3143.0 
790.8114 -940.1663 -3143.0 
773.1067 -940.1663 -3143.0 
755.4019 -940.1663 -3143.0 
737.6972 -940.1663 -3143.0 
726.6358 -948.8411 -3172.0 
702.2877 -940.1663 -3143.0 
684.583 -940.1663 -3143.0 
673.03143 -948.8411 -3172.0 
655.1634 -948.8411 -3172.0 
637.29535 -948.8411 -3172.0 
619.4271 -948.8411 -3172.0 
601.55914 -948.8411 -3172.0 
583.691 -948.8411 -3172.0 
560.6499 -940.1663 -3143.0 
547.95483 -948.8411 -3172.0 
530.08673 -948.8411 -3172.0 
507.5357 -940.1663 -3143.0 
489.8309 -940.1663 -3143.0 
472.12622 -940.1663 -3143.0 
454.4215 -940.1663 -3143.0 
440.74625 -948.8411 -3172.0 
426.74435 -957.51587 -3201.0 
408.71283 -957.51587 -3201.0 
394.34293 -966.4898 -3231.0 
372.65005 -957.51587 -3201.0 
351.4058 -948.8411 -3172.0 
330.48837 -940.1663 -3143.0 
282.49277 -957.51587 -3201.0 
222.26205 -931.79065 -3115.0 
199.32611 -907.26196 -3033.0 
138.24107 -957.51587 -3201.0 
120.20967 -957.51587 -3201.0 
101.25256 -948.8411 -3172.0 
83.38441 -948.8411 -3172.0 
65.51636 -948.8411 -3172.0 
48.083824 -957.51587 -3201.0 
29.780153 -948.8411 -3172.0 
11.9121065 -948.8411 -3172.0 
-5.9014874 -940.1663 -3143.0 
-23.606401 -940.1663 -3143.0 
-41.692257 -948.8411 -3172.0 
-59.560307 -948.8411 -3172.0 
-78.13624 -957.51587 -3201.0 
-96.16765 -957.51587 -3201.0 
-112.13006 -940.1663 -3143.0 
-129.83476 -940.1663 -3143.0 
-147.53944 -940.1663 -3143.0 
-168.2935 -957.51587 -3201.0 
-186.32489 -957.51587 -3201.0 
-204.35654 -957.51587 -3201.0 
-222.38794 -957.51587 -3201.0 
-238.24123 -948.8411 -3172.0 
-253.76779 -940.1663 -3143.0 
-276.48215 -957.51587 -3201.0 
-300.1262 -975.7629 -3262.0 
-434.7902 -948.8411 -3172.0 
-456.79666 -957.51587 -3201.0 
-470.52652 -948.8411 -3172.0 
-488.39456 -948.8411 -3172.0 
-501.6341 -940.1663 -3143.0 
-519.3388 -940.1663 -3143.0 
-537.04346 -940.1663 -3143.0 
-554.7484 -940.1663 -3143.0 
-572.45306 -940.1663 -3143.0 
-595.6031 -948.8411 -3172.0 
-613.4711 -948.8411 -3172.0 
-631.3392 -948.8411 -3172.0 
-655.1428 -957.51587 -3201.0 
-673.17426 -957.51587 -3201.0 
-691.2056 -957.51587 -3201.0 
-709.237 -957.51587 -3201.0 
-727.26843 -957.51587 -3201.0 
-745.3001 -957.51587 -3201.0 
-756.41595 -948.8411 -3172.0 
-774.284 -948.8411 -3172.0 
-792.15204 -948.8411 -3172.0 
-817.42566 -957.51587 -3201.0 
-835.45734 -957.51587 -3201.0 
-853.4887 -957.51587 -3201.0 
-863.62445 -948.8411 -3172.0 
-881.4925 -948.8411 -3172.0 
-907.5829 -957.51587 -3201.0 
-925.6146 -957.51587 -3201.0 
-943.646 -957.51587 -3201.0 
-961.67737 -957.51587 -3201.0 
-979.7088 -957.51587 -3201.0 
-997.7402 -957.51587 -3201.0 
-1015.77185 -957.51587 -3201.0 
-1033.8032 -957.51587 -3201.0 
-1061.6925 -966.4898 -3231.0 
-1079.893 -966.4898 -3231.0 
-1098.0933 -966.4898 -3231.0 
-1105.9291 -957.51587 -3201.0 
-1123.9604 -957.51587 -3201.0 
-1131.6459 -948.8411 -3172.0 
-1160.0233 -957.51587 -3201.0 
-1178.0547 -957.51587 -3201.0 
-1174.4141 -940.1663 -3143.0 
-1203.1183 -948.8411 -3172.0 
-1220.9863 -948.8411 -3172.0 
-1238.8542 -948.8411 -3172.0 
-1256.7224 -948.8411 -3172.0 
-1274.5907 -948.8411 -3172.0 
-1304.275 -957.51587 -3201.0 
-1322.3064 -957.51587 -3201.0 
-1328.1947 -948.8411 -3172.0 
-1346.0629 -948.8411 -3172.0 
-1376.4009 -957.51587 -3201.0 
-1394.4323 -957.51587 -3201.0 
-1425.7014 -966.4898 -3231.0 
-1443.9017 -966.4898 -3231.0 
-1462.1022 -966.4898 -3231.0 
-1480.3029 -966.4898 -3231.0 
-1498.5032 -966.4898 -3231.0 
-1502.621 -957.51587 -3201.0 
-1520.6523 -957.51587 -3201.0 
-1538.6837 -957.51587 -3201.0 
-1542.612 -948.8411 -3172.0 
-1560.4801 -948.8411 -3172.0 
-1536.0532 -923.41504 -3087.0 
-1449.7789 -861.7942 -2881.0 
-1478.2202 -868.9733 -2905.0 
-1482.2368 -861.7942 -2881.0 
-1461.5371 -840.55597 -2810.0 
-1465.7994 -833.9751 -2788.0 
-1469.2826 -827.0951 -2765.0 
-1721.293 -948.8411 -3172.0 
-1707.9087 -931.79065 -3115.0 
-1709.9459 -923.41504 -3087.0 
-1711.6677 -915.03937 -3059.0 
-1698.9445 -899.1855 -3006.0 
-1701.0365 -891.40814 -2980.0 
-1732.8107 -899.1855 -3006.0 
-1734.6094 -891.40814 -2980.0 
-1736.703 -883.9299 -2955.0 
-1709.4408 -861.7942 -2881.0 
1506.6204 -786.3173 -2580.0 
1514.6418 -798.2035 -2619.0 
1511.3428 -804.299 -2639.0 
1496.4772 -804.299 -2639.0 
1492.8401 -810.3945 -2659.0 
1489.5334 -816.79474 -2680.0 
1485.9901 -823.19507 -2701.0 
1482.2104 -829.5953 -2722.0 
1466.8772 -829.5953 -2722.0 
1462.7424 -835.99554 -2743.0 
1458.8989 -842.70056 -2765.0 
1455.3293 -849.7104 -2788.0 
1450.9845 -856.4154 -2810.0 
1447.4132 -863.73 -2834.0 
1431.449 -863.73 -2834.0 
1438.9597 -878.0543 -2881.0 
1434.5829 -885.36896 -2905.0 
1442.6288 -900.60767 -2955.0 
1438.0471 -908.22705 -2980.0 
1433.6609 -916.1511 -3006.0 
1429.4531 -924.38007 -3033.0 
1412.3679 -924.38007 -3033.0 
1407.2437 -932.3042 -3059.0 
1390.0122 -932.3042 -3059.0 
1372.7806 -932.3042 -3059.0 
1355.549 -932.3042 -3059.0 
1362.8175 -949.37146 -3115.0 
1333.1782 -940.8378 -3087.0 
1327.7235 -949.37146 -3115.0 
1310.1765 -949.37146 -3115.0 
1292.6295 -949.37146 -3115.0 
1275.0825 -949.37146 -3115.0 
1257.5355 -949.37146 -3115.0 
1239.9885 -949.37146 -3115.0 
1211.4532 -940.8378 -3087.0 
1194.0641 -940.8378 -3087.0 
1176.6747 -940.8378 -3087.0 
1159.2854 -940.8378 -3087.0 
1141.8961 -940.8378 -3087.0 
1124.5068 -940.8378 -3087.0 
1107.1177 -940.8378 -3087.0 
1089.7283 -940.8378 -3087.0 
1072.339 -940.8378 -3087.0 
1054.9498 -940.8378 -3087.0 
1037.5604 -940.8378 -3087.0 
1020.1712 -940.8378 -3087.0 
993.68634 -932.3042 -3059.0 
976.4548 -932.3042 -3059.0 
959.22327 -932.3042 -3059.0 
941.99164 -932.3042 -3059.0 
924.7602 -932.3042 -3059.0 
915.83545 -940.8378 -3087.0 
898.44617 -940.8378 -3087.0 
881.05695 -940.8378 -3087.0 
863.6676 -940.8378 -3087.0 
853.95435 -949.37146 -3115.0 
836.4073 -949.37146 -3115.0 
818.86035 -949.37146 -3115.0 
801.3134 -949.37146 -3115.0 
769.6761 -932.3042 -3059.0 
752.44464 -932.3042 -3059.0 
735.213 -932.3042 -3059.0 
724.5534 -940.8378 -3087.0 
713.57837 -949.37146 -3115.0 
696.0313 -949.37146 -3115.0 
678.48425 -949.37146 -3115.0 
660.9372 -949.37146 -3115.0 
643.39026 -949.37146 -3115.0 
625.8433 -949.37146 -3115.0 
608.2962 -949.37146 -3115.0 
585.43915 -940.8378 -3087.0 
573.2022 -949.37146 -3115.0 
555.6552 -949.37146 -3115.0 
533.27136 -940.8378 -3087.0 
520.56116 -949.37146 -3115.0 
503.01425 -949.37146 -3115.0 
485.46716 -949.37146 -3115.0 
463.71417 -940.8378 -3087.0 
450.37323 -949.37146 -3115.0 
432.82614 -949.37146 -3115.0 
415.2792 -949.37146 -3115.0 
401.30725 -957.9052 -3143.0 
387.142 -966.74365 -3172.0 
362.63818 -949.37146 -3115.0 
345.0911 -949.37146 -3115.0 
327.54416 -949.37146 -3115.0 
237.65353 -940.8378 -3087.0 
220.26419 -940.8378 -3087.0 
195.843 -908.22705 -2980.0 
179.05649 -908.22705 -2980.0 
135.73624 -957.9052 -3143.0 
116.98005 -949.37146 -3115.0 
99.43308 -949.37146 -3115.0 
81.88602 -949.37146 -3115.0 
64.33905 -949.37146 -3115.0 
46.791973 -949.37146 -3115.0 
29.507889 -957.9052 -3143.0 
11.803201 -957.9052 -3143.0 
-5.7963386 -940.8378 -3087.0 
-23.185797 -940.8378 -3087.0 
-40.575035 -940.8378 -3087.0 
-58.490025 -949.37146 -3115.0 
-75.35351 -940.8378 -3087.0 
-92.742744 -940.8378 -3087.0 
-110.1322 -940.8378 -3087.0 
-127.52144 -940.8378 -3087.0 
-146.22505 -949.37146 -3115.0 
-165.24413 -957.9052 -3143.0 
-181.31898 -949.37146 -3115.0 
-197.07861 -940.8378 -3087.0 
-214.46785 -940.8378 -3087.0 
-233.9601 -949.37146 -3115.0 
-251.50706 -949.37146 -3115.0 
-266.63556 -940.8378 -3087.0 
-286.6012 -949.37146 -3115.0 
-321.69513 -949.37146 -3115.0 
-423.13913 -940.8378 -3087.0 
-444.5241 -949.37146 -3115.0 
-462.07126 -949.37146 -3115.0 
-475.30707 -940.8378 -3087.0 
-492.6963 -940.8378 -3087.0 
-510.08554 -940.8378 -3087.0 
-527.4748 -940.8378 -3087.0 
-544.86426 -940.8378 -3087.0 
-562.2535 -940.8378 -3087.0 
-579.6427 -940.8378 -3087.0 
-597.0319 -940.8378 -3087.0 
-614.4212 -940.8378 -3087.0 
-637.5413 -949.37146 -3115.0 
-655.0883 -949.37146 -3115.0 
-666.5891 -940.8378 -3087.0 
-690.1822 -949.37146 -3115.0 
-707.7292 -949.37146 -3115.0 
-725.27637 -949.37146 -3115.0 
-742.82336 -949.37146 -3115.0 
-760.3703 -949.37146 -3115.0 
-777.91724 -949.37146 -3115.0 
-795.46423 -949.37146 -3115.0 
-820.31934 -957.9052 -3143.0 
-838.02405 -957.9052 -3143.0 
-848.10535 -949.37146 -3115.0 
-865.6523 -949.37146 -3115.0 
-883.1993 -949.37146 -3115.0 
-900.74646 -949.37146 -3115.0 
-918.29346 -949.37146 -3115.0 
-935.8404 -949.37146 -3115.0 
-953.3873 -949.37146 -3115.0 
-970.9343 -949.37146 -3115.0 
-997.3667 -957.9052 -3143.0 
-1015.0714 -957.9052 -3143.0 
-1023.57544 -949.37146 -3115.0 
-1041.1223 -949.37146 -3115.0 
-1058.6693 -949.37146 -3115.0 
-1076.2166 -949.37146 -3115.0 
-1093.7635 -949.37146 -3115.0 
-1111.3104 -949.37146 -3115.0 
-1128.8574 -949.37146 -3115.0 
-1136.0996 -940.8378 -3087.0 
-1153.489 -940.8378 -3087.0 
-1181.4985 -949.37146 -3115.0 
-1199.0455 -949.37146 -3115.0 
-1216.5924 -949.37146 -3115.0 
-1234.1394 -949.37146 -3115.0 
-1251.6866 -949.37146 -3115.0 
-1269.2335 -949.37146 -3115.0 
-1286.7805 -949.37146 -3115.0 
-1304.3275 -949.37146 -3115.0 
-1309.9924 -940.8378 -3087.0 
-1339.4216 -949.37146 -3115.0 
-1369.166 -957.9052 -3143.0 
-1374.5155 -949.37146 -3115.0 
-1392.0626 -949.37146 -3115.0 
-1396.9388 -940.8378 -3087.0 
-1427.1567 -949.37146 -3115.0 
-1444.7036 -949.37146 -3115.0 
-1462.2506 -949.37146 -3115.0 
-1493.0991 -957.9052 -3143.0 
-1510.8038 -957.9052 -3143.0 
-1528.5087 -957.9052 -3143.0 
-1532.4386 -949.37146 -3115.0 
-1536.0532 -940.8378 -3087.0 
-1539.3522 -932.3042 -3059.0 
-1503.6628 -900.60767 -2955.0 
-1494.5846 -885.36896 -2905.0 
-1461.5371 -856.4154 -2810.0 
-1453.7072 -842.70056 -2765.0 
-1469.2826 -842.70056 -2765.0 
-1721.293 -966.74365 -3172.0 
-1723.2607 -957.9052 -3143.0 
-1725.4557 -949.37146 -3115.0 
-1743.0027 -949.37146 -3115.0 
-1684.2496 -908.22705 -2980.0 
-1715.8777 -916.1511 -3006.0 
-1732.8107 -916.1511 -3006.0 
-1734.6094 -908.22705 -2980.0 
-1679.1068 -870.7398 -2857.0 
-1695.2004 -870.7398 -2857.0 
-1697.5176 -863.73 -2834.0 
1517.7156 -806.7768 -2599.0 
1503.0752 -806.7768 -2599.0 
1499.8889 -812.98517 -2619.0 
1496.4772 -819.1935 -2639.0 
1492.8401 -825.40186 -2659.0 
1477.8617 -825.40186 -2659.0 
1474.4368 -831.92065 -2680.0 
1470.7753 -838.43945 -2701.0 
1466.8772 -844.9582 -2722.0 
1462.7424 -851.477 -2743.0 
1447.2911 -851.477 -2743.0 
1443.3235 -858.3062 -2765.0 
1450.9845 -872.275 -2810.0 
1447.4132 -879.72504 -2834.0 
1431.449 -879.72504 -2834.0 
1450.9469 -901.7647 -2905.0 
1446.9286 -909.5252 -2930.0 
1442.6288 -917.28564 -2955.0 
1438.0471 -925.0461 -2980.0 
1421.2606 -925.0461 -2980.0 
1416.7279 -933.11694 -3006.0 
1399.7948 -933.11694 -3006.0 
1382.8619 -933.11694 -3006.0 
1365.929 -933.11694 -3006.0 
1361.1125 -941.4982 -3033.0 
1344.0276 -941.4982 -3033.0 
1326.9424 -941.4982 -3033.0 
1298.1969 -933.11694 -3006.0 
1292.7722 -941.4982 -3033.0 
1275.687 -941.4982 -3033.0 
1258.6022 -941.4982 -3033.0 
1241.517 -941.4982 -3033.0 
1224.4319 -941.4982 -3033.0 
1207.3468 -941.4982 -3033.0 
1179.6658 -933.11694 -3006.0 
1162.7329 -933.11694 -3006.0 
1156.0914 -941.4982 -3033.0 
1139.0063 -941.4982 -3033.0 
1121.9213 -941.4982 -3033.0 
1095.0009 -933.11694 -3006.0 
1087.7511 -941.4982 -3033.0 
1070.666 -941.4982 -3033.0 
1053.5809 -941.4982 -3033.0 
1036.4958 -941.4982 -3033.0 
1019.4107 -941.4982 -3033.0 
993.40283 -933.11694 -3006.0 
976.4698 -933.11694 -3006.0 
959.5368 -933.11694 -3006.0 
942.6039 -933.11694 -3006.0 
925.6708 -933.11694 -3006.0 
908.73785 -933.11694 -3006.0 
899.815 -941.4982 -3033.0 
874.8718 -933.11694 -3006.0 
857.93884 -933.11694 -3006.0 
841.0058 -933.11694 -3006.0 
831.4747 -941.4982 -3033.0 
814.3895 -941.4982 -3033.0 
797.30444 -941.4982 -3033.0 
780.21936 -941.4982 -3033.0 
756.34076 -933.11694 -3006.0 
739.40784 -933.11694 -3006.0 
722.47473 -933.11694 -3006.0 
705.54175 -933.11694 -3006.0 
694.7939 -941.4982 -3033.0 
671.6757 -933.11694 -3006.0 
660.6237 -941.4982 -3033.0 
643.5386 -941.4982 -3033.0 
631.82367 -949.56915 -3059.0 
609.3684 -941.4982 -3033.0 
592.2833 -941.4982 -3033.0 
575.19824 -941.4982 -3033.0 
558.1131 -941.4982 -3033.0 
545.6659 -949.56915 -3059.0 
523.94293 -941.4982 -3033.0 
511.2028 -949.56915 -3059.0 
493.97125 -949.56915 -3059.0 
472.68762 -941.4982 -3033.0 
455.60254 -941.4982 -3033.0 
442.27664 -949.56915 -3059.0 
425.045 -949.56915 -3059.0 
407.81348 -949.56915 -3059.0 
394.15698 -958.26086 -3087.0 
373.35037 -949.56915 -3059.0 
356.11887 -949.56915 -3059.0 
